# .PCD v0.7 - Point Cloud Data file format
VERSION 0.7
FIELDS x y z intensity
SIZE 4 4 4 4
TYPE F F F F
COUNT 1 1 1 1
WIDTH 1209
HEIGHT 1
VIEWPOINT 0 0 0 1 0 0 0
POINTS 1209
DATA ascii
55.612045 -48.269184 2.3354981 30
55.805939 -23.007561 2.1788812 28.5
55.811176 -22.787485 2.1485622 31.081499
55.621655 8.5813541 2.0086036 31.120501
55.777771 8.9761086 2.0061808 31
55.898659 9.3922815 2.0201535 31
55.970638 9.617054 2.0219703 31
55.823353 20.716822 2.1821814 30.625227
55.690186 20.829462 2.2180634 31
55.779472 38.226227 2.2249715 28.533199
55.926292 -48.411892 2.5136943 30
55.775269 -48.317181 2.5468166 30
55.858532 -22.945026 2.6884305 30.540749
55.897171 -22.66815 2.6004913 30.085751
55.760979 20.680956 2.4532926 30.068798
55.795967 38.261414 2.6018839 28.833082
55.699684 -48.467426 3.1777489 31
55.806816 -48.295048 2.9428346 28
55.767471 -22.961977 3.0161753 29.427801
55.729279 -22.622169 2.9989994 30.085501
55.792645 38.203724 2.9925449 28.931084
55.90097 -48.452831 3.3891211 29.5
55.737888 -48.322186 3.3096552 29.799999
55.868942 -22.899008 3.4707398 29.166666
55.840069 -22.622646 3.4231822 31.085751
55.977867 37.970947 3.2533004 29
55.75235 38.107399 3.3857086 29.046658
55.83456 -48.551113 3.7477667 30
55.832489 -22.958309 3.8235071 30.571428
55.707718 -22.707491 3.8098888 30.042751
55.969948 37.97192 3.7884014 29.5
55.747383 38.077534 3.8037009 29.369501
55.807163 -22.943186 4.1018734 30
55.938919 37.977894 4.2915983 29.666666
55.724289 38.066753 4.1468601 29.806341
55.751633 -48.34808 4.6422749 29
55.80619 -22.971306 4.5924721 30.166666
55.828289 37.979843 4.6254258 30
55.718937 38.046623 4.6228051 29.333334
55.932785 -48.556999 5.0884762 29
55.613888 -48.317646 4.9103522 29
55.811378 -23.004934 4.8212953 30
55.989471 37.882061 4.8155823 30
55.707493 38.028194 4.9284525 30.625
55.77615 -48.674725 5.5280685 31
55.794895 -22.932066 5.2556305 31
55.853012 37.925533 5.3526311 30.443928
55.620079 38.278774 5.572947 28
55.71743 -23.243135 5.840251 30
55.693493 38.193218 5.757956 29
55.695641 -48.403011 6.350512 30
55.860516 -23.318228 6.1026549 31
55.995274 37.903049 6.3178797 29
55.799416 38.126247 6.2866106 29.370749
55.817184 -48.524326 6.6201472 30
55.659901 37.972389 6.6113338 29
55.746742 38.148819 6.6370463 29.803749
55.939175 -48.871456 6.9391294 30
55.692219 -48.561031 6.9632311 31
55.884758 -23.202776 7.0119157 31
55.809601 37.843441 7.0399985 30.688999
55.69445 38.129898 6.831502 30.556
55.830994 37.563602 7.3793664 30.128
55.771156 37.827343 7.4247279 30.540813
55.768635 37.839733 7.7648249 30.618359
55.749565 -48.526779 8.2121563 31
55.882362 37.792336 8.2798824 31.047167
55.871819 -48.951874 8.6489449 30
55.832172 37.741993 8.7291517 31.0734
55.757755 38.131645 8.7564793 31
55.857037 38.072884 9.0094728 31
56.215443 -48.025673 -5.1278591 24
56.20715 -47.994965 -5.0534563 23.5
56.014889 -12.916108 -4.4573016 21.093
56.205536 -19.719065 -4.1344357 22.5875
56.239227 -16.439447 -4.1086941 21.0895
56.391006 -16.299337 -4.0128169 21.089001
56.064262 -13.324157 -4.0132575 21.092501
56.16523 -48.153469 -3.727592 22
56.019512 -20.914806 -3.6414554 13.666667
56.129402 -20.549046 -3.6214333 12.444446
56.207783 -20.13315 -3.6420381 12.666667
56.25164 -19.808434 -3.6873188 16.281876
56.182087 -19.459707 -3.7368791 15.063917
56.207096 -19.000568 -3.6258409 14.5
56.230988 -18.722702 -3.6166754 9.833333
56.270046 -18.312237 -3.6187541 9.5333338
56.050941 -17.95331 -3.6135445 20
56.061237 -15.713476 -3.9678311 21.0895
56.176197 -12.805285 -3.8078609 22.0945
56.217766 -48.14286 -3.3612235 24.4
56.232761 -40.67757 -3.4645419 22
56.338833 -27.026011 -3.5405898 19
56.048283 -20.938778 -3.3905087 15.882353
56.170429 -20.575092 -3.4246771 15.748677
56.283279 -20.196152 -3.3738494 16.892454
56.308804 -19.819613 -3.4760721 16.170849
56.169571 -19.340059 -3.513283 14.233459
56.215324 -19.024679 -3.5287099 12.45
56.189701 -18.649639 -3.5207024 11.734849
56.2029 -18.230984 -3.5018981 9.6871796
56.146053 -17.778231 -3.4732032 9.6794109
56.22554 -17.375624 -3.4340785 8.6597214
56.219219 -16.997332 -3.3936152 12.593939
56.177998 -16.586983 -3.3997762 6.7789116
56.195866 -16.168316 -3.3192124 10.066667
56.2355 -15.747686 -3.3454766 6.8333335
56.199436 -15.37328 -3.2995653 12.394556
56.206112 -14.944232 -3.3160203 4.7666664
56.209393 -14.634102 -3.306972 8.645833
56.191029 -14.180148 -3.3059452 9.3950615
56.115269 -13.799984 -3.3021846 5.6857142
56.137966 -13.428395 -3.2977686 10.085591
56.218197 -13.01305 -3.2659626 12.112699
56.219357 -12.694519 -3.2459724 14.416667
56.205616 -48.180813 -3.0373409 23
56.192188 -40.670242 -2.9266791 23
56.216045 -36.77861 -3.1241562 22.045
56.359657 -31.286865 -3.1128819 22.024
56.208584 -30.944412 -3.1014504 22.0235
56.327133 -28.924955 -3.0372307 21.056
56.241459 -28.609888 -2.9686055 21.784498
56.101067 -28.261608 -2.9597952 21.895405
56.140854 -27.209059 -2.8426483 22.070499
56.399033 -25.694254 -2.8562691 21.0425
56.222958 -25.345182 -2.8370776 21.04175
56.02013 -25.148109 -2.8269308 21.041
56.057098 -20.932676 -2.9684923 18.6875
56.202988 -20.530148 -2.9247203 19.593407
56.311726 -20.17478 -2.9501863 19.78112
56.334072 -19.821455 -2.9802833 21.27425
56.250446 -19.589266 -3.1788409 22.084999
56.190929 -15.643087 -3.1812003 19
56.23428 -14.999917 -3.155175 19
56.330379 -14.392632 -3.1394019 19
56.291397 -12.931197 -3.1014371 18.372084
56.268223 -12.526678 -3.0420914 15.211103
56.141552 -12.355307 -2.9664588 14.647222
56.335285 -48.236641 -2.4464884 24
56.159191 -40.690666 -2.4828274 24
56.084255 -33.69931 -2.4895229 23.054001
56.307785 -31.054817 -2.6091557 22.928349
56.082775 -28.195122 -2.590776 22.935343
56.345352 -24.420919 -2.7809281 21.056
56.104099 -24.212551 -2.7689116 21.05525
56.373672 -21.215559 -2.4233906 23.0285
56.225807 -21.033825 -2.6031063 21.68038
56.186821 -20.564409 -2.6465049 21.158695
56.326511 -20.195868 -2.6315997 21.328808
56.373432 -19.809807 -2.7164173 21.4491
56.352345 -15.942097 -2.6251967 8.3071423
56.324955 -12.437827 -2.6468396 18.807861
56.154743 -12.311991 -2.5765374 19.301163
56.245075 -11.945907 -2.5236695 20.898251
56.333363 -11.44359 -2.4320056 23.0965
56.299709 -9.6234035 -2.4220934 22.153999
56.000008 -5.6167526 -2.7320607 22.139
56.194981 -5.3313637 -2.6435034 22.134499
56.10009 -4.1439366 -2.568886 23.098499
56.333595 -3.8457081 -2.7123821 21.115499
56.031677 -3.2735491 -2.755137 21.115
56.020012 -3.1026239 -2.585381 22.12825
56.189407 -2.2098553 -2.5501416 22.12775
56.16692 -1.8089675 -2.5958359 22.142
56.123734 -1.5453469 -2.5874457 22.1415
56.093006 -0.60213119 -2.5506434 22.13975
56.118656 1.7277139 -2.484705 22.13175
56.177185 -48.228909 -2.2032664 24.149502
56.203388 -40.721924 -2.2458289 24.011375
56.179092 -36.772285 -2.0982215 24.027
56.3545 -31.037737 -2.0919678 25.013
56.27951 -28.494995 -2.1857107 24.041168
56.088497 -28.177189 -2.2465327 23.926029
56.27562 -21.164337 -2.1902795 24.189203
56.290142 -12.513793 -2.3025386 23.1605
56.22263 -12.164564 -2.2573597 22.538046
56.222801 -11.807376 -2.2239349 23.082209
56.280548 -11.331875 -2.0808229 24.136499
56.266842 -10.96586 -2.1331851 23.62571
56.279537 -8.8109007 -2.0147696 23.121
56.193459 -8.7700329 -2.1901145 22.122749
56.069698 -2.456955 -2.2272711 22.626877
56.269585 1.9217719 -2.1990268 22.378748
56.342293 2.2251582 -2.1253226 22.583332
56.302624 6.3285003 -2.0784512 22.142166
56.355949 6.5228653 -2.1650488 21.474333
56.108273 7.3432708 -2.0527258 22.13625
56.157963 7.7559156 -2.022805 22.13625
56.142288 -48.217716 -1.7308788 25
56.208538 -40.66576 -1.7481096 25
56.188076 -36.805531 -1.6749672 25
56.276268 -28.616163 -1.7962701 25.487791
56.105083 -28.252657 -1.8137565 25.395472
56.272343 -22.689543 -1.7039475 25.084999
56.263077 -21.299192 -1.7961987 26.916374
56.254936 -21.173729 -1.8884863 26.479969
56.316368 -12.149306 -1.9753027 24.104
56.198833 -10.94194 -1.851921 25.365761
56.186783 -10.649255 -1.7299186 26.319225
56.148861 -10.094103 -1.793012 24.658001
56.099632 -9.0767479 -1.7379211 24.822418
56.080383 -8.6233454 -1.9231749 25.1425
56.31501 1.8706791 -1.8237038 23.308001
56.243515 2.1455164 -1.7177156 23.710669
56.395603 2.686727 -1.79802 23.131001
56.334152 6.255815 -1.8529578 22.141251
56.252193 8.0534515 -1.9929919 22.136499
56.056568 9.3346968 -1.912547 22.131001
56.066063 9.6376495 -1.9027845 22.132751
56.133232 10.234191 -1.8749769 22.131874
56.317741 10.649634 -1.8505718 22.129
56.267117 10.891821 -1.8408533 22.132999
56.399441 11.368705 -1.8144135 22.13225
56.202625 -48.279083 -1.4538416 25.204651
56.13813 -40.730614 -1.4420031 25.4091
56.265812 -28.62937 -1.4329283 26.454311
56.077332 -28.249571 -1.4024875 26.689501
56.367508 -22.734161 -1.5176343 25
56.335011 -21.357756 -1.5578827 27.164
56.047657 -10.830087 -1.4261774 28.486807
56.223598 -10.479498 -1.4102653 28.467472
56.192978 -10.315938 -1.3813767 28.337564
56.090527 -9.9713402 -1.3834052 29.139
56.054424 -9.0448065 -1.49055 25.892126
56.132641 -8.7123318 -1.4917723 26.142
56.061096 -8.1024418 -1.4448125 24.167
56.065239 -6.8047228 -1.4671665 24.1665
56.219742 -4.7225757 -1.3712484 25.102167
56.13826 -4.2466369 -1.3466706 25.104166
56.192524 -2.8639417 -1.3155056 25.105751
56.295265 -2.2442305 -1.4479414 23.1425
56.318733 -0.88219583 -1.2608553 25.108
56.330208 1.8498789 -1.3866771 24.335751
56.28936 2.2954855 -1.4504138 24.082834
56.050301 10.145375 -1.4466491 23
56.333 11.554441 -1.3717583 23.132
56.171692 11.783139 -1.3807793 23.065374
56.215763 -48.26062 -0.87108475 26
56.111668 -40.678299 -1.0224973 26.011375
56.273922 -38.206032 -0.8791582 27.032499
56.178864 -36.838322 -1.1128922 26.027
56.388336 -28.892714 -0.98017949 28.017
56.302357 -28.666281 -1.0328151 27.698624
56.083145 -28.274292 -1.0032693 27.845039
56.271652 -22.661432 -1.0557696 25.57325
56.287331 -10.486562 -1.1402823 28.635624
56.1936 -10.379779 -1.1193107 26.1595
56.17572 -8.9397354 -1.0008909 28.844534
56.234047 -8.5333052 -0.99672616 28.525202
56.214161 -8.2397814 -0.99633873 28.22093
56.31863 -7.7805204 -0.94218719 28.136999
56.333305 -7.3332238 -0.95980114 27.460917
56.193745 -7.048502 -1.0170134 27.320282
56.248913 -6.5087137 -0.89766896 27.544674
56.360126 -6.3805485 -0.84970194 28.134001
56.260307 -4.168798 -0.84677577 27.638748
56.238316 -3.9409153 -0.81278944 28.138
56.176701 -2.5094223 -0.88727129 26.368374
56.09182 -2.2530689 -1.1121521 24.6595
56.218281 -1.9353952 -0.89495319 25.347801
56.045845 -0.63848495 -0.87548304 25.134501
56.351536 1.8437183 -1.0059868 25.497416
56.371319 2.005177 -0.90047199 25.153999
56.024891 10.130625 -0.95402378 24.347126
56.23262 11.823171 -0.9700799 24
56.333183 20.761618 -0.92944288 21.627625
56.133488 20.873814 -0.89549142 21.752092
56.356251 22.03989 -0.92178768 21.143
56.181511 23.353474 -0.92363918 20
56.043465 27.859131 -0.82945818 14
56.248554 28.291904 -0.89372927 12.89299
56.209282 28.554682 -0.98043567 13.24236
56.16153 28.986984 -0.96711826 10.305953
56.229706 29.395098 -0.92973119 9.056818
56.235901 29.786438 -0.89161903 7.2902932
56.163597 30.221169 -0.86227769 9.2857141
56.190945 30.629459 -0.82193351 8.0027781
56.151936 30.974623 -0.81978369 11.25
56.191452 -48.302208 -0.64748716 26
56.309593 -40.959782 -0.60050207 27.018499
56.313511 -39.124653 -0.55928767 27.039
56.186657 -36.873394 -0.70272851 27
56.201378 -36.152195 -0.58404666 27.056
56.193451 -34.540276 -0.4674589 28.042
56.038982 -32.941143 -0.43437985 28.054001
56.191029 -31.817514 -0.58766454 28.283875
56.201595 -31.491549 -0.51892537 28.54225
56.228947 -29.378571 -0.44728953 29.666666
56.209759 -28.411423 -0.71833211 29.033501
56.096664 -28.198854 -0.71300554 29.0215
56.160084 -26.204243 -0.41355717 28.073
56.317245 -22.895506 -0.72370327 26.086
56.220364 -22.7376 -0.66952586 26
56.21994 -6.4083595 -0.7901969 27.1525
56.21788 -4.8107491 -0.72496027 28.14625
56.217075 -4.7608304 -0.71778697 27.621189
56.23444 -4.1368828 -0.7132796 27.117001
56.117252 -3.4778633 -0.7217173 28.134501
56.226681 -2.9014077 -0.67714286 27.122084
56.083115 -2.4913673 -0.67247081 27.126751
56.012497 -2.3138859 -0.77689153 27.140499
56.281467 -1.8089125 -0.67624092 26.811083
56.153282 -1.4450896 -0.61032593 27.13925
56.179367 -0.85832709 -0.58667886 26.474503
56.110455 -0.71123427 -0.60224408 26.887877
56.176846 -0.25127667 -0.49745557 27.140249
56.275822 1.5126731 -0.46995631 27.122002
56.369316 1.8984734 -0.72355276 25.78775
56.308807 2.1260889 -0.58941263 26.129126
56.044601 10.127217 -0.522901 25.251356
56.098991 11.847478 -0.56786901 24.946301
56.284332 20.781971 -0.56256241 23.055426
56.09676 20.85515 -0.58614832 22.888073
56.166351 22.592731 -0.65173852 22.1455
56.360962 23.620171 -0.45461911 22.640999
56.196537 24.564035 -0.55367142 21.141001
56.333778 25.11286 -0.48574343 21.1415
56.032055 25.350485 -0.4979212 22.160999
56.232082 25.798689 -0.73001885 20
56.282017 26.196941 -0.52944851 21.188749
56.185287 26.542637 -0.42757529 20
56.177383 27.080069 -0.58026868 17.979168
56.210613 27.454081 -0.6268028 17.677546
56.203854 27.853844 -0.63939255 16.501226
56.179916 28.249714 -0.61901659 17.218834
56.125275 28.588005 -0.49046394 16.4
56.226109 31.115257 -0.77928734 10.75
56.211815 31.46167 -0.76714426 10.916667
56.224285 31.868473 -0.73674297 9.4375
56.183567 32.235573 -0.70272309 8.9883928
56.186893 32.598866 -0.68214113 10.291666
56.169548 33.030361 -0.65807509 8.0679178
56.187508 33.411999 -0.65219891 9.280303
56.220024 33.825932 -0.62314147 9.6047611
56.213799 34.223682 -0.49938813 12.057675
56.215134 34.505634 -0.5032779 11.142857
56.213943 -48.310455 -0.06530425 26.25
56.299484 -40.87265 -0.36320466 27.009001
56.327911 -34.811192 -0.3508302 28.011
56.392277 -32.211449 -0.29179338 29.036501
56.245907 -31.750978 -0.36138359 29.043625
56.025928 -31.467684 -0.36382967 29.046499
56.165974 -30.55703 -0.30878639 29.045832
56.276978 -30.123589 -0.18419881 30.035
56.144791 -29.816889 -0.31361938 29.540688
56.064789 -29.386692 -0.24902737 29.057499
56.225128 -28.613102 -0.20607248 30.028625
56.174416 -28.226517 -0.17544761 30.578836
56.26622 -27.752769 -0.28807077 30.4
56.089371 -27.433653 -0.24549186 30.515562
56.212231 -27.072447 -0.1515855 29.536751
56.211746 -26.612324 -0.16655505 31
56.182434 -25.694908 -0.11758399 31.042166
56.297302 -25.119301 -0.024671245 31.069
56.020847 -24.116457 -0.0059407339 31
56.20369 -23.361433 -0.034865912 29.077499
56.184883 -22.947979 -0.15712762 29.430099
56.231129 -22.721703 -0.15575273 27.906389
56.24099 -0.78452897 -0.13584107 26.1625
56.036728 10.08455 -0.16732773 26.115002
56.189102 11.814719 -0.12966487 25.975748
56.331192 20.742954 -0.19761816 24.238909
56.080879 20.842012 -0.22634166 24.173685
56.260418 23.835613 -0.33825952 23.147001
56.093071 24.307819 -0.34818301 23.1595
56.288872 25.013203 -0.31002098 23.160999
56.244995 25.779566 -0.30886981 22.147751
56.158344 26.265944 -0.25056446 22.1415
56.205967 26.541845 -0.29785433 21.136499
56.175377 27.067944 -0.28523245 21.479298
56.162178 27.423916 -0.17875622 21.767519
56.133335 27.74914 -0.29521888 20.053167
56.186947 28.146214 -0.34374869 19.838213
56.241474 28.541979 -0.1951112 19.666666
56.173424 34.287018 -0.17285682 14.318127
56.146351 34.503727 -0.19807224 15.591269
56.117149 35.248363 -0.080382511 20
56.339092 -48.484863 0.022774732 27
56.149479 -48.337399 0.13250451 27.125
56.395271 -40.684742 0.0057663536 28.018499
56.110569 -31.372431 0.051588833 30.013
56.270279 -28.930399 0.13577154 31.011
56.272869 -23.976488 0.0044865985 31
56.185825 -23.37261 0.086536415 30.740417
56.268475 -22.853884 0.11864434 29.373127
56.17868 -22.721397 0.20274426 29.039621
56.030209 10.075229 0.12297495 26.6215
56.206764 11.771538 0.25009665 26.712044
56.227955 20.739048 0.18335626 25.527872
56.102394 20.817631 0.11682799 25.363636
56.216591 34.328396 0.1313962 18.700926
56.189102 34.532669 0.22334395 19.341938
56.197693 34.967525 0.3428286 20.985477
56.182526 35.28603 0.28781474 19.822239
56.312576 35.767685 0.26501933 20.00725
56.134628 36.215813 0.31984553 20.0075
56.2612 36.434109 0.29680815 20
56.222931 36.92392 0.31215444 19
56.131443 -48.440041 0.79815966 28
56.239658 -48.287521 0.71619678 28
56.211136 -22.844973 0.5851422 29.551407
56.154648 -22.723991 0.59315974 29.785042
56.330307 -10.264089 0.42654514 24.0895
56.355724 11.594792 0.78144312 28
56.277702 11.735288 0.56602907 27.248102
56.202217 20.726097 0.60373884 26.86496
56.055965 20.853792 0.57339138 26.039667
56.231934 34.296589 0.46946609 21.725695
56.31081 34.665447 0.60953611 23.174093
56.210953 34.991737 0.52588725 22.078434
56.159756 35.242588 0.49284852 21.560602
56.002777 36.159149 0.41272286 20
56.254726 36.65374 0.44731241 22.012501
56.171841 37.023232 0.52915162 21.243679
56.073711 37.328629 0.66771269 22.17
56.270081 37.8881 0.73397094 22.0445
56.211971 38.132275 0.67822123 22.046064
56.188278 -48.356003 0.92765731 28
56.251774 -22.872061 0.99896371 28
56.11792 -22.684162 1.0700407 30.310072
56.055996 9.8023415 1.0451127 28.500423
56.161724 10.22605 1.0643302 28.448971
56.274246 10.576493 1.0727646 28.5595
56.33456 10.900389 1.0282873 28.187332
56.187687 11.731858 0.85932142 27.799999
56.221245 20.709755 0.99111032 28.117615
56.060772 20.818741 1.0685663 27.0595
56.327599 34.70784 0.81585526 25.200001
56.364761 34.809185 0.8029151 24.101
56.037285 37.048794 0.81986344 23.0735
56.203102 38.128956 1.0158478 23.613586
56.16193 -48.493286 1.5835193 29
56.22718 -48.337708 1.4617999 27.5
56.165413 -22.883255 1.3848656 29.06275
56.069004 -22.709927 1.3622673 31.12475
56.012001 9.5639715 1.3067473 29.1495
56.057697 9.7920008 1.4355724 29.361366
56.167023 10.177337 1.447331 29.394411
56.294811 10.619772 1.4100102 29.219683
56.365276 10.945629 1.4124751 29.040276
56.205318 20.677389 1.4075307 29.524216
56.384014 37.992706 1.3504775 24
56.204647 38.108429 1.4252944 25.252769
56.16288 -48.483891 1.7737045 27.833334
56.14677 -48.362408 1.7188567 29
56.232426 -22.89654 1.8153609 29.03557
56.08094 -22.764143 1.7492491 29.361666
56.058636 9.7982693 1.7982281 30.224796
56.167599 10.180131 1.7973996 29.989441
56.30114 10.627615 1.7680362 29.89929
56.365448 10.866532 1.8395485 29.852417
56.209957 20.642481 1.8162436 30.137611
56.329723 37.982185 1.7394174 25.5788
56.181087 38.083088 1.8205206 26.640385
56.147896 -48.549995 2.3770006 30
56.188698 -48.322369 2.3149526 30
56.219307 -23.050642 2.2199421 28.520939
56.102261 9.9993076 2.0626185 30.068249
56.159016 10.283101 2.0417736 31
56.283669 10.680266 2.0721843 31
56.346195 10.985303 2.1222978 31
56.223976 20.600962 2.1734068 30.7085
56.347252 37.968426 2.2074356 27.9594
56.167435 38.076889 2.2277331 28.317875
56.212917 -48.447777 2.5549767 30
56.041061 -48.353695 2.4917064 30
56.304199 -23.208151 2.7399099 30
56.16814 -22.830301 2.4683099 31.081499
56.226646 20.5242 2.6023316 30.703667
56.304558 37.963402 2.5787003 27.881226
56.155346 38.0914 2.5870488 29.118296
56.210953 -48.520329 3.0687559 29.5
56.162727 -48.340275 3.1294463 31
56.361237 -23.208595 2.993674 30
56.181274 -23.064846 2.9581001 29.623569
56.031147 -22.739201 3.0158966 31.082001
56.282661 37.955269 2.9834297 28.810259
56.141384 38.079735 2.987288 29.290804
56.220146 -48.565712 3.3919237 29.625
56.061844 -48.395836 3.3230906 31
56.230972 -22.99888 3.4771476 29.142857
56.106441 -22.735306 3.3370552 31.086
56.262753 37.935997 3.3837454 28.988636
56.106281 38.038074 3.348124 28.641644
56.199043 -48.631012 3.7408795 30
56.332317 -23.210581 3.920074 31
56.260857 -23.017107 3.7416646 30.440929
56.213646 37.92942 3.7991302 29.684977
56.06266 38.038002 3.6532266 28
56.159523 -23.05912 4.0927525 30
56.188824 37.91272 4.1194124 29.951765
56.010956 38.026188 4.1597738 30
56.34111 -48.512581 4.6554255 29
56.157177 -23.063469 4.649498 30.200001
56.184441 37.898716 4.6083236 30.015188
56.191013 -48.497551 4.9259315 29
56.256451 -23.135319 4.8188267 30
56.175957 37.883533 4.9781342 29.184418
56.190174 -48.823463 5.3704205 30.5
56.176197 -23.015709 5.2424369 31
56.214314 37.812389 5.3895493 29.763496
56.227337 38.0485 5.396699 28.140499
56.130535 -23.340759 5.9241757 30.759165
56.100971 37.82637 5.6905541 30
56.276848 -48.594139 6.3660183 30
56.179054 -23.412092 6.0937214 31
56.232376 37.75024 6.2507892 29.370169
56.125519 -48.561333 6.6225958 30
56.218945 37.781662 6.6113205 29.777313
56.195625 -48.936024 6.8923187 29
56.019684 -48.656788 6.9599719 31
56.200813 37.768753 7.07127 30.556376
56.146194 37.729214 7.4640355 30.394003
56.269657 37.735573 7.7250352 30.684584
56.287933 -48.673687 8.2239056 31
56.383926 37.469349 8.34758 31.1085
56.196705 37.681103 8.1615391 31.071833
56.284958 -49.074665 8.6420355 30
56.149006 37.497475 8.4754219 31.110001
56.163307 37.680454 8.6531553 31.041082
56.295326 37.681343 8.9588566 31.073668
56.09634 37.637615 9.3000593 31.133499
56.56813 -48.113419 -5.0787954 23.666666
56.423119 -19.621141 -4.7841377 21.089001
56.68137 -19.508608 -4.6943684 22.087999
56.451511 -17.836103 -4.4412827 21.0865
56.499901 -14.167728 -4.5393686 21.091999
56.634136 -13.619786 -4.5396347 21.092501
56.735638 -19.732958 -4.3882036 22.087
56.602459 -19.461916 -4.3954654 21.084999
56.664131 -17.10705 -4.1669035 21.089001
56.631191 -12.886333 -4.203105 22.091999
56.514057 -48.269852 -3.7056873 22
56.610069 -19.661167 -3.6815169 15.306277
56.659199 -19.384424 -3.6815937 15.823125
56.73328 -18.915636 -3.6198926 15
56.570446 -18.666355 -3.6516786 10.622222
56.431828 -18.328524 -3.9237709 21.587749
56.447674 -12.59401 -3.675411 22.091
56.644711 -48.279018 -3.3659067 24.5
56.760132 -23.216352 -3.4420495 23
56.568588 -20.037634 -3.3775055 12.75
56.579769 -19.727367 -3.3679247 14.547126
56.600204 -19.39719 -3.5356166 13.010675
56.637093 -18.968086 -3.5294919 12.157947
56.601257 -18.548944 -3.5191438 10.618681
56.603111 -18.201502 -3.4935024 9.74265
56.551842 -17.809315 -3.4884346 7.5738516
56.614704 -17.371052 -3.4458501 6.2446508
56.559696 -16.97463 -3.4094429 10.790365
56.503311 -16.618708 -3.3742778 11.444398
56.575565 -16.21105 -3.3496125 11.956781
56.523235 -15.814043 -3.325489 13.44225
56.638271 -15.403171 -3.3220744 9.2351189
56.601173 -14.999223 -3.3109937 8.9942856
56.668301 -14.554516 -3.2850556 11.063492
56.572941 -14.188605 -3.298398 9.6499996
56.568169 -13.791978 -3.3121588 10.589823
56.570972 -13.396586 -3.3065414 11.354165
56.630596 -12.982269 -3.2924147 14.749154
56.69772 -12.751218 -3.219352 10
56.656906 -11.180661 -3.5851345 22.093
56.593285 -48.297085 -2.9912207 23
56.618969 -31.657473 -2.8354421 22.055
56.544601 -31.580349 -3.1216447 22.0245
56.751938 -29.243538 -2.981338 22.0175
56.554226 -28.933516 -2.948235 21.840002
56.448299 -28.782326 -2.9735906 22
56.582253 -21.04356 -2.863348 19.56765
56.629471 -20.49831 -2.8705933 19.168766
56.653889 -20.114162 -2.9387276 19.846418
56.580467 -19.750904 -2.9705801 18.348709
56.678474 -19.583832 -3.1431177 22.161501
56.409031 -14.032595 -3.1338882 19
56.505962 -13.444568 -3.1249361 19
56.674175 -12.902324 -3.132935 13.893346
56.636307 -12.611306 -2.9755828 15.195831
56.779984 -12.383062 -2.9159894 23.091499
56.424736 -11.27476 -2.8510704 23.092501
56.743511 -48.362858 -2.4358678 24
56.570068 -31.237366 -2.7331145 22.561001
56.593651 -31.11833 -2.5665376 23.095778
56.751469 -29.290272 -2.5055375 24.011999
56.539959 -28.948498 -2.5597243 23.15925
56.40852 -28.754393 -2.5122523 24
56.792267 -26.174564 -2.7510765 22.032499
56.546398 -24.571709 -2.7897642 21.056499
56.404984 -22.826994 -2.46665 24
56.749084 -21.204962 -2.7017713 20.25
56.559368 -21.092386 -2.6767416 21.656752
56.527653 -20.557991 -2.6691637 21.857193
56.59864 -20.1991 -2.6682904 22.14266
56.578777 -19.764271 -2.655406 21.082876
56.450432 -15.645143 -2.7395751 2
56.623543 -12.885845 -2.6813681 22.152
56.609467 -12.54752 -2.5894194 19.521391
56.583668 -12.210585 -2.4301245 21.0495
56.508812 -11.959558 -2.4280157 20.897905
56.496571 -11.261809 -2.506485 23.094999
56.783649 -8.8100386 -2.5670028 24.095501
56.461514 -8.6639757 -2.783289 22.161501
56.573322 -2.4117181 -2.5377114 22.126499
56.678272 -1.8658999 -2.5196962 22.1255
56.40741 1.8943238 -2.4628339 22
56.724579 3.4366999 -2.4032869 22.1285
56.55872 -48.329018 -2.2029676 24.186455
56.625843 -35.089989 -2.1758423 24
56.540398 -28.939222 -2.2197788 24.052631
56.779339 -23.463686 -2.3203361 24
56.430569 -21.187462 -2.0259383 25.166
56.502949 -19.802753 -2.3979042 23
56.627834 -12.499066 -2.2664237 22.557377
56.598354 -12.2298 -2.215193 22.950432
56.536762 -11.856007 -2.1706605 23.526205
56.604965 -11.443491 -2.122926 23.963333
56.672695 -11.089896 -2.0966012 24.458305
56.500546 -9.8397989 -2.2163982 24.0935
56.47477 -8.8425503 -2.2728107 22.1175
56.658253 -8.7199469 -2.1977882 23.784834
56.405354 1.9522119 -2.2788053 22.5
56.458145 2.6084313 -2.1860662 22.80925
56.571445 3.0261893 -2.2057412 22.583332
56.687611 3.4209769 -2.1254504 22.375
56.797283 6.2094517 -2.1897991 21.64275
56.470913 6.9421 -2.1387208 21.473665
56.628262 7.335845 -2.1116703 21.473001
56.733006 7.8064604 -2.1129241 21.137751
56.717903 -48.434723 -1.6630501 25.5
56.507397 -48.324387 -1.7280163 25.200001
56.684532 -35.148026 -1.7449586 25.0215
56.525124 -28.95966 -1.7938094 25.395447
56.702667 -22.915373 -1.7990767 25
56.569981 -21.469456 -1.7522776 27.375065
56.667534 -12.227836 -1.9224862 24.862625
56.525063 -11.778718 -1.9596921 24.634501
56.686661 -11.327259 -1.8330696 25.113394
56.602135 -11.061801 -1.7918533 25.999266
56.68092 -10.64205 -1.7545817 27.471832
56.669136 -9.9371262 -1.6145606 24.1635
56.567665 -9.4266472 -1.7796011 24.954998
56.400211 -9.0469713 -1.8033528 25.1495
56.776482 -8.6335878 -1.8896722 24.138
56.402248 2.3723607 -1.6073734 24
56.452152 2.5758777 -1.7732062 23.595055
56.530575 2.8340666 -1.6884258 24
56.705341 3.4199805 -1.6455367 24
56.736752 5.8934908 -1.7196993 23.1325
56.762005 6.1474619 -1.8160865 22.140499
56.685459 7.7280359 -1.9856888 22.141251
56.609249 8.6325636 -1.9580802 22.136419
56.681683 8.9491692 -1.9416085 22.136375
56.737118 9.3771524 -1.9182068 22.134937
56.743668 9.7493296 -1.86869 22.138
56.474426 10.997357 -1.8306104 22.1285
56.672581 11.386402 -1.8075401 22.063999
56.671894 11.700576 -1.7940716 22.0263
56.645638 -48.410461 -1.4549844 25.012751
56.511295 -48.360054 -1.4449013 25.5
56.689034 -35.146683 -1.3018969 26.0215
56.54681 -28.986731 -1.4249439 26.424789
56.584873 -22.894884 -1.5089843 25
56.593796 -21.419184 -1.5658911 27.164499
56.64259 -10.913518 -1.532823 27.951363
56.568081 -10.495062 -1.3694726 28.056667
56.6703 -10.27428 -1.3385766 28.429527
56.610695 -9.8833551 -1.3888566 26.1577
56.587208 -9.4152937 -1.5222063 25.652248
56.768867 -7.2172356 -1.2071564 25.159
56.700291 -6.8391609 -1.4634578 24.167
56.785061 -2.7667465 -1.2516584 25.1085
56.44838 2.6352389 -1.4733778 24.0875
56.556095 3.0352402 -1.5079888 23.97389
56.677086 3.4878004 -1.4570707 23.816
56.603111 11.83136 -1.4188607 23
56.740917 12.101421 -1.3628696 23
56.661438 -48.428692 -1.0067884 25.5235
56.554226 -48.360455 -0.86211497 26
56.630123 -39.842155 -1.0531223 26.045
56.521931 -39.381386 -1.0504621 26.0235
56.731907 -35.167965 -0.92134464 26.699499
56.718933 -29.268356 -0.80082756 28.0175
56.556789 -29.01074 -1.0492705 27.513529
56.64489 -22.843252 -0.94524628 26
56.613552 -22.727377 -1.1690245 24
56.519875 -10.593544 -1.1487544 28.084148
56.685127 -10.237313 -1.1462897 29.187687
56.623726 -9.0523977 -0.98959661 29.415752
56.628922 -8.5281782 -1.0279648 27.914055
56.536633 -8.2766161 -1.0243255 27.875563
56.643349 -7.3334923 -1.0307966 27.251219
56.521999 -7.0749321 -0.95684981 27.263561
56.643291 -6.5567236 -0.88104206 27.150599
56.57811 -4.4892097 -0.84257919 28.13225
56.482536 -4.2123137 -0.89963192 26.123833
56.554043 -3.026685 -0.87228364 26.5168
56.527691 -2.5389726 -0.91504955 26.135876
56.684223 -2.1640198 -0.98004657 24.9506
56.402248 1.8775592 -0.97977602 26.1285
56.42255 2.3023257 -0.80014038 26.125
56.744568 3.5280161 -0.92973584 25.1255
56.621769 11.813516 -0.98900974 23.759344
56.738087 12.11405 -0.93148017 24.036125
56.673969 20.694002 -0.90306574 21.712999
56.551121 20.811846 -0.82781303 22
56.564514 21.609205 -0.98099005 21.143499
56.533581 24.183664 -0.8098737 21.158001
56.708652 27.55027 -0.84157193 14
56.621243 27.805904 -0.82935691 13.42
56.595161 28.191982 -0.92760426 13.431065
56.623055 28.623959 -0.98544234 13.53889
56.629742 29.015163 -0.95392758 11.842307
56.649628 29.431768 -0.92000353 9.1722231
56.57711 29.801668 -0.88596964 10.496428
56.643181 30.181818 -0.85430133 11.381944
56.585106 30.623013 -0.82553029 6.6547618
56.553524 30.952967 -0.80627263 8.2285719
56.639889 -48.445511 -0.59806287 26.005875
56.462555 -48.359295 -0.61984032 26
56.794613 -38.780552 -0.60829926 27.0135
56.543354 -37.242447 -0.68132347 27.0455
56.570827 -33.23642 -0.50866205 28.028999
56.571014 -32.002235 -0.6219185 28.02825
56.577869 -31.803669 -0.5248965 28.44335
56.787956 -31.589935 -0.4326787 29.0515
56.736931 -29.801277 -0.60666591 27.070499
56.479721 -29.464029 -0.46746397 29.525375
56.629055 -29.083931 -0.57744157 28.927818
56.659275 -22.910465 -0.62804466 26.205534
56.431839 -22.756027 -0.69917047 26.0825
56.436188 -19.699465 -0.79862756 22.084499
56.646927 -6.3834715 -0.79805154 28.136499
56.569012 -4.8610191 -0.65692252 27.109501
56.596245 -4.6439128 -0.73727512 28.131834
56.693489 -4.2687531 -0.73000199 28.134499
56.465229 -3.7110775 -0.70644993 27.148001
56.639805 -3.0513029 -0.64954174 27.120501
56.482094 -2.5358639 -0.79290903 27.127499
56.596222 -2.0867903 -0.7053526 26.397125
56.66861 -1.8114151 -0.62533897 27.144501
56.604485 -0.92675465 -0.61814153 26.638252
56.741119 -0.63758612 -0.56085098 27.14225
56.654015 -0.27410093 -0.54728913 27.1425
56.704792 1.5100805 -0.60876429 26.120501
56.451569 1.858055 -0.60028553 26.4545
56.530033 2.1547713 -0.57318258 26.755875
56.569809 2.6192808 -0.62370497 25.810831
56.713974 3.0305197 -0.5959264 25.968084
56.681564 3.3487923 -0.58128202 25.962418
56.598686 11.820733 -0.56789863 24.834589
56.731731 12.157904 -0.54735428 24.785694
56.736919 12.588891 -0.52396291 25.123749
56.781147 13.00914 -0.4890697 25.122749
56.587582 20.692425 -0.56896508 23.019367
56.421871 20.820219 -0.78957856 22
56.744339 21.408043 -0.68751371 22.471834
56.796844 21.752981 -0.63716096 23.1605
56.473297 22.453501 -0.49938428 23.153999
56.520256 23.489225 -0.53257048 22.144749
56.593758 23.846443 -0.56422818 21.742201
56.583317 24.226259 -0.43998995 22.137751
56.571575 24.546835 -0.54290718 21.953899
56.663792 24.945818 -0.52473968 21.653126
56.605175 25.514774 -0.53211153 21.65925
56.560097 25.737734 -0.56437904 19.883333
56.487736 26.14183 -0.58999991 20.209917
56.713554 26.597061 -0.6748634 18.290874
56.604626 27.100021 -0.61197782 18.060728
56.585773 27.451258 -0.71855181 16.796297
56.615883 27.802605 -0.61702287 16.815622
56.577713 28.056845 -0.51788586 18.125
56.419151 28.487057 -0.61967146 18
56.799061 30.799305 -0.7712335 19
56.605358 31.01387 -0.78513879 5.75
56.622772 31.372219 -0.77728134 8.166667
56.667797 31.763876 -0.74260706 8.0669641
56.607769 32.228786 -0.71502805 9.5777769
56.565067 32.687489 -0.69334644 9.166666
56.570988 33.003803 -0.66879994 6.9960318
56.580257 33.370415 -0.64408243 7.7353172
56.640739 33.751163 -0.63608563 10.157738
56.569923 34.209297 -0.5233019 11.661707
56.621639 34.413094 -0.54716504 8.1000004
56.669765 -48.461002 -0.044245962 26.333334
56.48048 -48.365826 -0.057434052 27
56.506817 -35.279602 -0.38984072 28.038
56.727699 -33.137341 -0.35851651 28.056749
56.623585 -32.426254 -0.27555677 29.037001
56.635609 -32.023354 -0.35058352 29.04175
56.477741 -30.580347 -0.30665201 29.042126
56.564709 -30.109455 -0.22977877 29.372917
56.478474 -29.854883 -0.28998441 30.04575
56.554176 -29.494967 -0.35088998 29.55275
56.620049 -29.040382 -0.32940933 29.356583
56.555038 -28.560987 -0.20743032 30.230665
56.540226 -28.14966 -0.1898579 30.43335
56.643566 -27.792931 -0.28266686 30.333334
56.526455 -27.411314 -0.31709427 30.333334
56.655472 -26.92104 -0.15202715 30.227448
56.540207 -26.598753 -0.16611323 31
56.593243 -25.838659 -0.21617241 30.019625
56.544514 -25.424835 -0.11057707 31.064375
56.605785 -24.970037 -0.012541411 31.06975
56.578518 -22.896044 -0.20323727 28.205412
56.540314 -22.683805 -0.10432983 26.769375
56.717388 -10.032182 -0.0002166569 23.084999
56.786697 -0.94597721 -0.15119201 26.163
56.613731 11.819176 -0.1829565 25.65476
56.734859 12.169168 -0.17369238 25.521599
56.784122 12.443986 -0.20178966 25.394167
56.780106 13.008016 -0.28163362 25.312626
56.552048 20.632126 -0.20541888 24.265114
56.697029 22.219032 -0.20493975 24.138874
56.554123 23.79458 -0.31538397 23.145
56.524906 24.256649 -0.25339907 23.1334
56.587997 24.617378 -0.35412356 22.113501
56.764744 24.964108 -0.3404429 22.8235
56.686436 25.462675 -0.28828612 22.127125
56.672043 25.832958 -0.31014276 22.146418
56.434204 26.032251 -0.35546386 21.136999
56.464756 26.744665 -0.37875736 20
56.524368 27.022839 -0.324022 20.880901
56.566204 27.332998 -0.23653087 21.471325
56.619011 27.745401 -0.33776745 20.041874
56.68177 28.146164 -0.22397889 19.701082
56.452377 28.813467 -0.30081066 20.549
56.569698 31.563887 -0.17087196 1
56.762238 33.892105 -0.16004902 18.24375
56.645588 34.144432 -0.16216184 14.604957
56.500977 34.60862 -0.13963281 21.0865
56.596611 -48.481289 0.1269023 27.125
56.457741 -48.384384 0.13305883 27
56.749973 -40.221153 0.18819137 28.024
56.685654 -39.866467 0.19680153 28.009001
56.630901 -28.083641 0.22198084 31.006001
56.400719 -27.940477 0.22328398 31.005501
56.733837 -26.22323 0.043577604 31.06575
56.612198 -23.784418 0.019821417 31
56.609074 -22.889204 0.18040943 29.079931
56.55024 -22.762066 0.20379241 27.769375
56.79702 -9.9683952 0.19498411 23.0895
56.471272 11.590509 0.3146953 27
56.628468 11.81117 0.22471075 26.45616
56.737392 12.194155 0.21267025 26.314827
56.756092 12.429112 0.06318602 26.063999
56.772129 13.033688 0.055090733 26.127501
56.545727 20.593781 0.19045942 25.698555
56.742641 33.922447 0.031643767 18
56.583645 34.224804 0.1909789 19.184851
56.57542 34.575726 0.2276804 19.615444
56.546963 35.069946 0.2536788 19.682396
56.677425 35.340805 0.25067562 20.407625
56.640541 35.769958 0.35255629 21.02
56.607609 36.179993 0.14781068 18.5
56.421577 36.542015 0.2384696 18.5
56.643158 36.92601 0.29382256 20.50625
56.685181 38.018723 0.29727396 19
56.649014 -48.409092 0.72752291 28
56.610622 -40.058125 0.5541842 29.018499
56.571198 -22.881508 0.58604777 29.893181
56.492752 -22.786488 0.76507723 30.1695
56.52317 11.595963 0.75293648 28
56.626698 11.790611 0.59744871 27.246534
56.756557 12.191927 0.6128518 27.19541
56.466301 20.366938 0.69905329 26
56.526005 20.595181 0.59731591 27.172167
56.46682 34.156879 0.5038029 22.449703
56.418285 34.678677 0.65363801 23.68825
56.580284 35.108692 0.59376103 22.607246
56.631279 35.235294 0.66750926 23.228762
56.505051 35.828869 0.41195709 21.025499
56.785877 37.138889 0.42067134 21.02
56.701672 37.242332 0.64181381 22.0695
56.714069 37.972324 0.69095957 22.284832
56.529179 38.055035 0.68154925 22.022909
56.64127 -48.518452 0.90180945 28
56.608051 -22.942736 1.0468639 28.232498
56.574253 -22.708469 0.97135085 30.539125
56.429222 11.103542 1.138615 28.6562
56.495777 11.366085 1.0682877 28.303679
56.635757 11.770215 0.93361455 28.005634
56.748531 12.137719 0.92259216 28
56.792046 12.995317 0.88151574 28
56.555721 20.377598 1.0507805 27.666666
56.525463 20.570967 0.99700856 28.528088
56.428371 34.704346 0.82282329 25
56.628868 35.176304 0.8478933 25.518625
56.616287 35.245815 0.84279275 24.397699
56.707989 37.959606 1.0195605 23.713451
56.551392 38.038528 0.99227166 23.762552
56.680592 -48.55265 1.4905769 28.5
56.519245 -40.232872 1.5176746 30.009001
56.556263 -22.939049 1.3638743 29.512573
56.450882 11.03746 1.3617053 28.899084
56.54356 11.403125 1.3706824 28.969961
56.654259 11.783162 1.3788608 28.865097
56.757179 12.170155 1.3538892 28.823635
56.664089 20.357771 1.4698051 30.301729
56.514629 20.550856 1.4036859 29.813787
56.666798 37.953568 1.4018756 25.152491
56.498276 38.032616 1.4135503 25.304184
56.585239 -48.564247 1.757872 28.4
56.56855 -22.941692 1.7836705 29.528
56.501411 -22.580832 1.8145624 24.080999
56.440189 11.065248 1.6914668 29.903749
56.523899 11.388489 1.7991946 29.947382
56.653576 11.824753 1.8248553 29.880377
56.752731 12.153831 1.8223981 29.884142
56.518242 20.351336 1.8089293 29.55875
56.57972 20.519926 1.8110244 30.246605
56.630943 37.942398 1.8281583 26.736883
56.497025 38.027252 1.7819965 25.735294
56.557087 -48.554737 2.3546212 30
56.678753 -39.802353 2.0960538 31.009001
56.721069 -23.885477 2.2595701 28
56.568069 -23.315735 2.1831353 28.428572
56.557598 -23.143726 2.1758308 29
56.418285 11.124929 2.1261089 31
56.508747 11.423054 2.138483 30.792887
56.623989 11.860242 2.1625791 31
56.722145 12.177675 2.1744924 30.916666
56.786442 12.478177 2.1523876 30.371
56.572033 20.366838 2.3341708 30
56.563023 20.498196 2.1726754 30.699562
56.626476 37.927837 2.2225642 28.145245
56.497681 38.017834 2.1991291 26.416666
56.561539 -48.553116 2.5623639 30
56.702229 -23.372122 2.7276011 30
56.479382 -22.942781 2.5455201 30.086
56.593601 20.357935 2.6390662 31.027874
56.542854 20.517729 2.4148114 31.160999
56.642262 37.900246 2.6095548 28.531488
56.589931 -48.579876 3.0981643 30
56.673912 -23.284636 3.0239079 29.534874
56.615311 -22.952658 2.9449186 28.028999
56.76049 -22.762529 2.9529607 25.082001
56.619301 37.874081 3.0051799 29.047621
56.463005 38.009247 3.1713953 27.1075
56.683636 -48.866455 3.5004377 29
56.565506 -48.609695 3.3787298 29.875
56.548161 -23.069815 3.4643714 29.1085
56.616364 37.846706 3.4104908 29.349752
56.636589 -48.697937 3.6803226 30.5
56.751804 -23.288641 3.8430922 31
56.558121 -23.108685 3.7797797 30.799999
56.602428 37.814724 3.822053 29.413567
56.447056 -23.149462 4.1025977 30
56.579201 37.808041 4.1519074 29.829971
56.745724 -48.634697 4.6655478 29
56.60796 -23.22587 4.5816236 30.5
56.508331 -23.156448 4.7003713 30
56.594574 37.771919 4.568872 30.115385
56.508003 -48.865116 5.1454434 28
56.524387 -48.685524 5.184185 30
56.599266 -23.252113 4.8187375 30
56.57127 37.760113 4.9489284 29.8234
56.552013 -48.961594 5.2368593 30
56.751041 -23.26405 5.2806196 31
56.510986 -23.054424 5.2185125 31
56.604004 37.716179 5.3788133 29.342375
56.558472 -23.490059 5.8061409 30
56.565601 37.70039 5.6617746 29.8234
56.682148 -48.713337 6.3759742 30
56.50951 -23.459679 6.0683784 31
56.676346 37.597912 6.2808037 29
56.624825 37.680759 6.1702261 29.110998
56.624928 -48.696152 6.6346087 30
56.68388 37.585083 6.5501757 30
56.652477 37.656761 6.5484443 29.72435
56.481159 -49.038391 6.9428039 30
56.520969 -48.775162 6.9530191 31
56.405602 -23.361097 6.9895868 31
56.620026 37.633583 6.9644089 30.506927
56.680004 37.537338 7.3859477 30.666666
56.539219 37.633381 7.3073831 30.30525
56.674995 37.564102 7.7404723 30.666666
56.568413 37.638943 7.7260804 30.703667
56.626049 -48.76408 8.1076994 31
56.58012 37.553669 8.2442789 31.026375
56.59993 -49.166508 8.6368322 30
56.642929 37.481361 8.5800791 31.0714
56.417797 37.734165 8.4405556 31.1395
56.634277 37.568104 8.9071589 31
56.444962 37.65826 8.802206 31.140499
56.964096 -48.2393 -5.0875869 23.75
57.120094 -19.900648 -4.6929564 22.087
57.09174 -18.665125 -4.530169 21.086
57.020699 -13.462924 -4.7078552 21.094
56.814991 -19.658083 -4.265583 22.088499
56.930725 -19.393522 -4.1110821 21.420334
56.99881 -17.759354 -4.2167239 21.088499
56.88269 -16.973045 -4.0751343 21.088499
56.958969 -48.403709 -3.6353016 22
57.014294 -48.351139 -3.7521591 22.017166
56.807713 -19.602531 -3.6218145 19
56.950157 -19.421431 -3.688482 14.695251
57.050041 -19.031702 -3.6884911 13.117101
57.090992 -18.503922 -3.6376719 6
56.937469 -18.199371 -3.617871 4.25
57.103321 -48.435497 -3.3463006 23.666666
57.008678 -48.333843 -3.3806107 25.5
56.83548 -22.957611 -3.4421854 23
56.876255 -19.690498 -3.3394842 16.09152
56.972118 -19.491179 -3.414449 14.225461
57.015335 -18.990221 -3.5419092 10.851851
56.999405 -18.540222 -3.5338275 9.6047621
56.983589 -18.163771 -3.4952185 9.49652
56.969147 -17.778168 -3.4723477 6.8630948
56.994686 -17.406254 -3.4512937 8.9715271
57.041618 -17.008076 -3.4087851 11.466667
56.998989 -16.611757 -3.3972814 7.7825403
57.074642 -16.179243 -3.371002 12.516666
56.997868 -15.777356 -3.3419731 15.183673
57.005276 -15.327485 -3.3156691 13.228571
56.986465 -15.001407 -3.337404 14.253968
57.002628 -14.627603 -3.3335137 12.28205
56.993248 -14.199973 -3.3135636 9.7922621
56.950405 -13.771828 -3.3181062 12.231265
56.93285 -13.370306 -3.290561 13.433333
57.023563 -13.083362 -3.2827375 12.020442
57.167927 -11.711729 -3.3713121 23.093
56.98172 -48.425987 -2.9872835 23
57.002804 -48.392994 -3.0101068 23
57.156677 -31.793686 -2.8380158 22.056
56.899544 -31.482285 -2.9683383 22.040249
56.918205 -24.847639 -2.8063536 21.057501
56.928146 -23.787628 -2.8540847 22.0385
56.989014 -23.284683 -2.9071536 22.666666
57.021515 -22.974915 -2.9119232 24.028418
57.023811 -21.259277 -2.8854766 19.357143
56.979256 -21.127001 -2.9051037 20.337751
57.019043 -20.487019 -2.8748496 19.069517
57.017189 -20.208496 -2.9659607 17.959084
57.014969 -19.665253 -3.0657501 18.469244
57.027653 -19.567789 -3.0675998 18.255018
57.094017 -13.267763 -3.1951835 18
56.951664 -12.902834 -3.0673811 14.89425
57.001633 -12.668899 -2.9468937 15.566138
57.096169 -48.470791 -2.4265881 24
57.073261 -33.352158 -2.4893317 24.00775
56.901768 -31.256754 -2.6366012 23.037571
56.807102 -31.165192 -2.4495845 23.0555
56.889885 -29.533258 -2.54951 23.039625
57.101612 -27.388609 -2.7928841 22.0345
57.001884 -27.11134 -2.7836013 22.034
56.882996 -26.651209 -2.7677605 22.033251
56.923824 -23.702986 -2.5286191 22.619234
56.976749 -23.392342 -2.5782516 22.558823
57.094143 -23.0165 -2.5629182 22.67576
57.033653 -21.277056 -2.673372 22.045881
56.92934 -21.175186 -2.7235315 22.257627
57.038036 -15.972896 -2.7494316 2.5416665
56.92498 -12.814481 -2.5581591 22.096001
56.993565 -12.553095 -2.5881989 19.44462
57.030651 -12.248599 -2.4623024 21.106838
56.843426 -11.5934 -2.6082211 23.0935
56.924614 -8.5750399 -2.4539235 23.620501
57.196491 -8.2444992 -2.7304907 22.157499
57.054153 -7.8912182 -2.4555922 24.096001
57.011765 -48.468018 -2.1748655 24.222221
56.838734 -48.38274 -2.2967649 24
57.142551 -33.37706 -2.1719906 24.175333
56.940937 -31.134197 -2.284235 23.865833
57.0588 -29.83876 -2.0705895 25.029499
56.923931 -23.710415 -2.1466639 23.90238
56.973061 -23.412943 -2.1734548 23.964891
57.104183 -23.022091 -2.1844983 24
56.975273 -12.486518 -2.2491322 22.753889
56.982342 -12.316018 -2.1855614 23.462391
56.887257 -11.753791 -2.0907938 24.370834
56.992355 -11.246838 -2.132472 24.120865
56.953541 -11.035423 -2.1555181 23.87179
56.913311 -10.286135 -2.1964285 24.0935
56.815098 -9.3543177 -2.1217456 24.1625
56.875637 -9.0107088 -2.2023723 24.123249
56.918995 -8.7555399 -2.1020536 24.149
56.892998 -8.348464 -2.2821174 24.098499
57.053139 -7.791748 -2.2825518 24.099001
57.023209 4.6340032 -2.3528459 21
57.112331 4.9158096 -2.2718017 21.143167
56.948231 6.1003957 -2.1876829 21.391876
56.856762 6.6628513 -2.2728209 21.1415
56.989346 7.0716233 -2.2393944 21.140375
57.079296 7.4382253 -2.2144501 21.13975
57.145176 7.6139569 -2.1807096 21.139
57.054283 -48.50478 -1.7087955 25
56.860989 -48.374908 -1.7724397 26
57.158783 -33.386219 -1.7861243 25
56.942558 -29.625416 -1.9762428 25.052
56.928013 -23.725861 -1.7855202 25.57843
57.012333 -23.388985 -1.7627749 25.566666
57.118893 -23.01552 -1.7890197 25.797104
57.036449 -21.614429 -1.814262 26.63945
56.846127 -21.553667 -1.8136753 26.551374
57.162712 -12.857389 -1.9555969 26.1595
57.07864 -12.400816 -1.9647379 24.102751
56.94595 -12.207228 -1.8446821 25.446833
57.002583 -11.689676 -1.9319726 25.133417
57.023754 -11.327808 -1.7752262 26.122097
56.988052 -11.086579 -1.7962737 26.310366
57.065968 -10.749383 -1.7132572 26.637001
57.082157 -10.26552 -1.7413096 25.1595
57.047924 -9.9644766 -1.7704927 24.660252
57.011505 -9.4409561 -1.8275763 24.823668
56.901505 -9.1207495 -1.6606878 25.484499
56.958275 -8.703537 -1.7865911 24.160999
56.956741 -8.1962023 -1.9843677 24.097
57.090816 -7.7520223 -1.9814619 24.0975
56.871166 3.5896592 -1.7890724 23.6255
56.923744 3.8213406 -1.7179166 23.584167
56.944492 4.2965264 -1.7464263 23.14625
57.031876 4.6439233 -1.9477448 22
57.193939 5.0698419 -1.7131439 23.1455
56.805408 6.1082277 -1.9052186 22.1415
57.115242 8.0899744 -1.955289 22.136999
57.08588 10.13623 -1.8894399 22.132126
57.08012 13.134639 -1.7355283 22
56.983841 -48.49744 -1.4599447 25.375
57.167473 -33.415443 -1.4101171 26
56.805256 -29.408201 -1.2791632 27.0355
57.022545 -27.098913 -1.4387364 26.154499
56.931911 -23.736082 -1.4216805 26.490196
56.996151 -23.389364 -1.4381573 26.054525
57.122025 -23.028372 -1.4180396 26.893538
56.880054 -21.506081 -1.5739182 27.165001
56.919128 -11.302779 -1.5153406 26.51211
57.035503 -10.937326 -1.4245393 28.632257
56.958275 -10.564985 -1.39828 27.140146
56.999672 -10.213996 -1.329583 28.099808
56.939777 -9.9129944 -1.4525906 25.816833
56.91106 -9.3345289 -1.5620872 25.150749
56.915741 -9.0254126 -1.4877919 26.14393
56.963192 -8.6087503 -1.3874854 26.442564
57.001637 -8.3143997 -1.3483485 25.437166
57.119503 -7.8650222 -1.4130038 25.100668
57.054039 -7.4187369 -1.400901 25.122335
56.871021 -4.3118334 -1.3194057 25.106001
56.871445 -2.4151907 -1.4585987 23.143
56.874275 3.7448714 -1.4602438 23.813873
56.928371 4.2292705 -1.3698418 24.142334
57.053925 4.6869597 -1.4275591 23.600498
57.159664 5.0083823 -1.4380836 23.526655
56.826675 11.378016 -1.3670092 23
56.895626 12.224517 -1.3896985 23
56.912708 12.657283 -1.3540264 23
56.946625 12.919147 -1.3384588 23
57.078182 13.330949 -1.2401391 23
57.141453 13.643211 -1.2668056 23
57.165413 20.469128 -1.3413159 20
57.044678 -48.510441 -0.84837413 26
57.182121 -33.418442 -1.0414271 27
56.81953 -32.044464 -0.87860852 28.0305
57.199284 -30.115051 -1.0442821 28.030001
57.091469 -29.83765 -0.95434153 28.0485
56.939373 -23.752913 -1.001938 27.980417
57.039669 -23.392086 -0.98701525 27.978563
57.12178 -23.03927 -1.0028782 28.270666
56.968098 -12.916987 -1.0874649 22.087999
57.05864 -10.816106 -0.99882162 29.151501
56.960167 -10.629509 -1.0891362 28.229725
56.995518 -10.198929 -1.1430196 28.890186
57.086182 -9.2359352 -1.0526593 28.813749
57.001316 -9.0682459 -1.0129997 28.744997
57.021526 -8.5867071 -1.0574561 27.635374
57.056259 -8.239995 -1.0198587 27.410728
57.044132 -7.7798114 -0.99468499 27.323502
56.979973 -7.3416243 -0.96672827 27.664413
56.97908 -7.0505548 -0.95207798 27.544147
57.001076 -6.6585197 -0.87941372 27.531269
57.080513 -4.9768262 -0.81010121 28.127501
56.966862 -4.6002674 -0.87816978 26.612688
57.117508 -3.2853556 -0.84816045 26.109501
56.919285 -3.0475776 -0.90410757 26.622938
57.057812 -2.6649024 -0.94759595 26.141472
57.143684 -2.2246907 -0.82366687 25.658749
56.848492 3.5539427 -0.99442559 25.099001
56.899788 3.7210853 -1.0251454 24.61425
56.99295 4.0697336 -1.0602025 24.395374
56.876972 12.254315 -0.93709809 24.056801
56.913025 12.525832 -0.90112793 24
56.999523 13.020201 -0.84256023 24
57.120651 13.447644 -0.85012358 24
57.184757 13.694156 -0.95472062 23.666666
56.964584 20.614016 -0.98639345 21.394175
56.998547 23.583157 -0.8869887 20
57.065147 27.476519 -0.84361827 14
57.037338 27.908104 -0.86828089 13.52789
57.00536 28.157639 -0.9682579 13.309244
56.965378 28.640163 -0.99937367 10.708333
57.018223 29.014267 -0.96903318 9.8122711
57.071537 29.43961 -0.93248135 9.1910257
57.036137 29.805655 -0.9068228 10.272727
57.058422 30.218521 -0.87270713 9.9604168
57.021606 30.572046 -0.86283517 14.5625
56.971172 30.987267 -0.82260627 11.416667
57.110226 31.369307 -0.87934059 19
57.058472 31.747171 -0.85995287 19
57.024544 32.121914 -0.83991945 19
56.978485 32.520813 -0.82043862 19
57.049904 -48.571491 -0.62606668 26
56.996513 -38.029663 -0.66038853 27.044001
56.992626 -37.954315 -0.59225947 27.056751
56.893124 -37.403606 -0.67506373 27.046
56.960766 -34.530613 -0.66837096 28.032
57.181156 -34.180855 -0.5563342 28.052
57.084145 -33.402451 -0.59635627 27.676498
57.08947 -32.083725 -0.63816911 28.048834
56.97768 -31.768023 -0.47466764 28.549126
57.04929 -29.662466 -0.49342644 29.349167
56.871231 -29.569038 -0.41850054 30.028999
