# .PCD v0.7 - Point Cloud Data file format
VERSION 0.7
FIELDS x y z intensity
SIZE 4 4 4 4
TYPE F F F F
COUNT 1 1 1 1
WIDTH 989
HEIGHT 1
VIEWPOINT 0 0 0 1 0 0 0
POINTS 989
DATA ascii
-12.886133 -3.1769683 0.95504326 26.008251
-12.798163 -3.3872106 0.95909745 26.01
-10.418732 -1.8494662 0.71583825 26.058832
-10.454574 -1.7159307 0.97653633 27
-10.544357 -1.4978663 1.0181106 27
-10.456485 -1.745569 1.3450946 28.547619
-10.549398 -1.4940972 1.3986528 28.5
-10.495006 -1.7488989 1.7240092 30
-10.578927 -1.5019606 1.7828432 30
-10.08042 -2.9659681 0.2642335 24.004
-10.278696 -2.559571 0.29059038 24.241001
-10.311583 -2.0145881 0.2608653 24
-10.324338 -1.8895425 0.31868637 24.588249
-10.099767 -2.9632018 0.5672549 25.376999
-10.244534 -2.6349261 0.54664773 25.238781
-10.293676 -2.1209414 0.56098992 25.5
-10.361617 -1.8918371 0.63911366 25.5
-10.140879 -1.5872182 0.74744719 26.007
-10.111423 -2.6499536 0.93218774 27
-10.278362 -2.099627 0.93224949 27
-10.17995 -1.9074228 0.9245429 27.088375
-10.054132 -1.220468 1.088429 27.504749
-10.089536 -2.6444192 1.3050821 28.5
-10.277799 -2.1227152 1.3094642 28.5
-10.334888 -1.9594299 1.3773141 28.5
-10.029129 -1.2181973 1.4438815 29.004749
-10.047453 -2.8101101 1.7295164 30
-10.13616 -2.6424725 1.687924 30
-10.330217 -2.1154928 1.67725 30
-10.367458 -1.966704 1.7570399 30
-10.042097 -1.2202083 1.6862166 30.004749
-9.9298391 -3.29581 0.25359046 24.25
-9.9939814 -3.1542935 0.25851005 24
-9.9626369 -3.2502756 0.57189327 25.444445
-9.9904966 -3.1701922 0.50388366 25
-9.8318253 -3.3761132 0.90573889 27
-9.8946962 -3.032212 0.98766601 27
-9.8387184 -1.347038 0.94280428 27.675501
-9.7645788 -3.3369503 1.2856277 28.478001
-9.8945065 -3.0300319 1.3239909 28.375
-9.8229179 -1.3435404 1.4235996 29.675501
-9.773941 -3.3837802 1.6665659 30.003624
-9.9285059 -3.0358138 1.7280604 30
-9.2377405 -1.2848266 0.67374337 26.005249
-9.5036316 -1.0336382 0.988693 27.561167
-9.4875717 -1.0321372 1.4432696 29.561167
-8.8040466 -0.80739111 -0.18951604 22
-8.8335123 -0.78365976 -0.075673968 22.5
-8.8459139 -0.96302211 0.23236273 24.222221
-8.9300776 -0.75275236 0.23168045 24
-9.1448526 -1.4522687 0.4348135 25.676001
-8.8771896 -0.95787156 0.55763096 25.799999
-8.9454041 -0.74632853 0.54816681 25.5
-8.8949928 -0.91413635 0.85182035 27.5
-9.0301857 -0.74833131 0.99273449 27.573214
-9.0471859 -0.75617194 1.4078808 29.501501
-8.7858562 -1.0511421 0.22075255 24
-8.5222015 -0.51408231 0.31158975 24.455557
-8.7695265 -1.2236778 0.41600034 25.5
-8.7930031 -1.0763241 0.4857997 25.253
-8.579381 -0.58712506 0.57966077 25.905161
-8.5489597 -0.57090789 0.940005 27.680887
-8.7833967 -0.84917289 1.2715294 29.5
-8.5608034 -0.55204666 1.3298851 29.56275
-8.3436852 -0.42959604 0.31273004 24.501999
-8.1610556 -0.34649667 0.35318387 24.75
-8.1881962 -0.46967968 0.63480401 26.5
-8.1061487 -0.32826197 0.66028512 26.389221
-8.2408838 -0.45426989 0.96608615 28.056887
-8.1418953 -0.33488929 1.1020058 28.667875
-8.2365942 -0.46611556 1.3325281 30
-8.1519833 -0.32976189 1.3619918 30.001188
-7.9099035 -0.23062393 0.37352264 24.916916
-7.8277879 -0.25947809 0.6392644 26.567715
-7.8053188 -0.25574207 0.98155653 28.445625
-7.7715373 -0.23034555 1.2650838 30.024786
-7.4869485 -0.026632188 0.28643504 24.501251
-7.2697854 -7.7375154 0.54049945 25.5145
-7.468245 -0.027398311 0.59154606 26.251251
-7.5304604 -0.077904783 0.93074888 28.166668
-7.4590158 -8.095232 1.3516474 28.5075
-7.5128031 -8.1012564 1.7560992 30.004999
-6.9413218 -7.9266429 1.2972096 28.515499
-6.9794178 -7.962255 1.6866746 30.015499
-6.8770633 -7.3161073 1.8456426 31.0145
-6.4334583 -7.1232872 0.60624462 26.014999
-6.5051613 -7.7350044 1.1538914 28.01375
-6.5059509 -7.1964245 0.84415865 27.014999
-6.5111308 -7.7406397 1.3953807 29.01375
-6.5216837 -7.7416415 1.6720271 30.175833
-6.6799922 -7.4512873 1.8412763 31
-6.2610364 -7.1004472 0.37375548 25
-6.1643939 -7.2932258 0.44695634 25.0275
-6.1338849 -7.0150008 0.51685911 25.666666
-6.221674 -7.6196346 1.1327839 28
-6.0234957 -7.5069027 1.0445012 27.758251
-6.162364 -7.0379062 0.81604344 27
-6.2320142 -7.6313853 1.3682563 29
-6.061358 -7.5499549 1.3965706 29.258251
-6.2403517 -7.6483808 1.7015337 30.375
-6.2014732 -7.5102139 1.8032354 30.903299
-5.746314 -6.8678017 0.14175498 24
-5.7649088 -7.0072455 0.58845741 25.942501
-5.7612643 -7.406055 1.0817504 28.023916
-5.6881166 -6.8557587 0.83060586 27.02775
-5.7799397 -7.4286575 1.4209617 29.523916
-5.86449 -7.4908509 1.7801212 31.023834
-5.4589367 -6.8185449 0.17313659 24.022375
-5.2796249 -6.6608539 0.36989599 25.02125
-5.5999961 -7.2282829 0.58473498 26.017
-5.2242403 -6.6597691 0.5950098 26.025999
-5.5305848 -7.3076377 1.0744071 28.026501
-5.2431531 -7.1762614 1.038563 28.02825
-5.5036964 -6.7675943 0.81715631 27.025499
-5.3643255 -7.2541909 1.4442917 29.861416
-5.2475142 -7.1832242 1.2489083 29.02825
-5.4403367 -7.3094473 1.7133272 31.028418
-4.979835 -6.4823675 -0.255777 22.017
-5.0902729 -6.8774953 0.13379771 23.695166
-5.1036229 -6.645658 0.28541046 24.579611
-4.8719501 -6.9459047 0.69378275 26.583334
-5.0567617 -6.5821013 0.71367937 26.775249
-4.9005485 -6.9928713 0.97983092 27.977777
-4.9389853 -7.018785 1.3752583 29.9
-4.9963698 -7.0779433 1.6212052 31
-4.6906023 -6.5802302 -0.24938329 22.018
-4.6000733 -6.642621 0.29677355 24.679331
-4.6775641 -6.3952084 0.27766654 24.5
-4.569787 -6.6686502 0.61528403 26.361216
-4.6596107 -6.3829741 0.73956299 27
-4.7934155 -6.9827943 1.0920802 28.5
-4.4853606 -6.7676845 0.98995519 28.333334
-4.628087 -6.8708434 1.4725084 30.638887
-4.5197196 -6.7896991 1.3151791 30
-4.2350612 -6.4726844 -0.00080935843 23.031
-4.1808038 -6.3428469 -0.15791035 22.274311
-4.1249871 -6.5978289 0.23603186 24.354752
-4.0866752 -6.6070523 0.61063409 26.416666
-4.1376057 -6.6217666 1.0200942 28.63225
-4.1237659 -6.654263 1.3759016 30.5215
-3.8305869 -6.4624357 -0.087896965 22.5
-3.8126814 -6.2084394 -0.088917837 22.6905
-3.9385943 -5.7969365 -0.21496475 22.018499
-3.8305979 -6.4790468 0.24561417 24.444443
-3.7845299 -6.3351951 0.12962238 23.7645
-3.6112313 1.5955008 0.23237704 25.875
-3.6612852 1.7688383 0.25640303 25.642857
-3.7956841 -6.4713225 0.60596573 26.525
-3.6105967 -6.3832746 0.68466198 27
-3.6095951 1.4065436 0.67853755 30.508001
-3.6580546 1.710333 0.63815421 29.735153
-3.7798474 -6.4629412 0.95819741 28.5
-3.6542864 -6.3916526 0.92002195 28.4
-3.7644463 -6.4776278 1.3025723 30.444445
-3.2722225 -5.6435275 -0.11361906 22.361
-3.2576313 0.60017115 -0.08574415 22.251501
-3.3903565 1.8831756 -0.13500452 21.34
-3.2585397 0.64460462 0.15853795 25.041666
-3.418462 1.0023663 0.17175977 25.063543
-3.5374064 1.3982269 0.25148171 25.818544
-3.3671718 1.890939 0.16996586 24.820261
-3.2127075 2.0056736 0.27400589 26
-3.2628605 0.60599124 0.57954895 30.31671
-3.4237731 0.95123219 0.61484677 30.278061
-3.5394037 1.3617723 0.60704488 29.722878
-3.4105358 1.8575826 0.62701243 29.784496
-3.4362381 -6.3095341 1.0419759 29.279688
-3.5788698 -6.4132795 1.3780148 31.03175
-3.4257214 -6.325099 1.2982675 30.750778
-2.8486333 0.80801904 -0.49915746 17
-3.0464561 -5.6087637 -0.11830135 22.333332
-2.9743555 -5.5627861 -0.10232756 22.383188
-2.82727 -0.53680474 -0.10595967 21.333334
-2.9124622 -0.20422557 -0.094025142 21.464443
-3.1143489 0.30590099 -0.05810836 22.333334
-3.0568218 0.62697279 -0.11505102 21.880033
-2.9501438 0.99258876 -0.13745296 21.314661
-3.0525723 1.4748665 -0.13760991 21.995554
-2.9079769 1.6610956 -0.32194567 18.75
-2.9895372 -5.6489892 0.22029771 24.539633
-3.0187278 -5.5665402 0.14509384 24.066452
-2.8590267 -0.5049485 0.12694958 24.88426
-3.0501609 -0.10376378 0.19904315 25.885061
-3.0675952 0.13330661 0.19127759 25.670321
-3.1063011 0.55084497 0.1121121 24.605453
-2.9792655 1.0501913 0.010337325 23.129002
-3.1706288 1.9854506 0.18342791 25.082001
-2.9466052 2.0919204 0.25342879 26
-3.0690029 -5.7076101 0.52477419 26.531708
-3.0599618 -5.5693092 0.53864634 26.723501
-2.8344646 -0.91230887 0.57254583 31.004375
-2.8945394 -0.67140734 0.55200326 30.798203
-3.044826 -0.13682216 0.53428704 30.366089
-3.084554 0.2318057 0.5128445 29.941565
-3.1743722 0.45351395 0.50027329 29.589249
-3.1602752 1.9941607 0.57896316 29.416668
-2.9163547 2.0855064 0.57203364 29.710318
-3.1563554 -6.1947913 1.1415896 30.0315
-2.9530892 -5.5301528 0.87894785 29.015877
-2.9718027 -6.1153831 1.2750058 31.029749
-2.4768555 -0.69223547 -0.99476242 7
-2.4203088 -0.86638469 -0.51955384 15.333333
-2.524601 -0.64292395 -0.51558685 14.775
-2.7494285 0.60016423 -0.47792026 17
-2.5516405 -5.3877406 -0.10169883 22.375
-2.5283608 -0.86063284 -0.19340487 19.945055
-2.6911955 -0.58382481 -0.15823077 20.723499
-2.7212226 -0.26889735 -0.24891363 19
-2.7354012 0.52996773 -0.32702747 19
-2.7569246 0.92761821 -0.33814201 19
-2.7520638 1.5280882 -0.36049587 18
-2.4977465 2.1369457 -0.15811333 21.653126
-2.6223984 -5.4337759 0.12174086 23.952112
-2.4692469 -1.2621082 0.1562764 25.398809
-2.6280468 -0.96942782 0.21119034 26.240398
-2.7580888 -0.65997916 0.21720053 26.314478
-2.6078269 2.2257495 0.24292284 26.037224
-2.5806873 -5.4308348 0.55586702 27.032072
-2.461272 -1.2677398 0.44600612 29.782278
-2.6198566 -1.0448426 0.50761408 30.561289
-2.7715545 -0.67064124 0.47190231 29.947443
-2.6149426 2.2078879 0.56584352 29.911964
-2.6301482 -5.4802699 0.95352787 29.729931
-2.278502 -0.63128072 -0.92093879 6.8833332
-2.1555214 -0.84976315 -0.54848796 13.496296
-2.2943411 -0.63259178 -0.61673063 11.986935
-2.2786489 -0.38283816 -0.54033285 13
-2.2079945 -5.2755942 -0.11449351 22.232927
-2.0549448 -0.83104253 -0.20678692 19.047457
-2.0269318 -0.78209251 -0.15477687 19.875
-2.1681354 0.55266869 -0.089478441 22
-2.291616 2.3905494 -0.069846362 22.078499
-2.253171 2.4252241 -0.086975716 21.75
-2.1876822 -5.3443847 0.16803436 24.359747
-2.2464077 -1.2265363 0.3239221 28.334999
-2.2323327 -1.0978478 0.24755937 27.175833
-2.0168502 -0.74612361 0.079387814 24.505001
-2.1211667 0.28541741 0.23909855 27.668125
-2.1672544 0.55129349 0.24209116 27.620312
-2.3433418 2.3694563 0.18637823 25.436163
-2.157764 2.4677517 0.28124082 26.562702
-2.2193537 -5.263886 0.60213059 27.583303
-2.0890982 -5.1596856 0.64119446 27.999693
-2.3187118 -1.2563143 0.47578472 30.509375
-2.0174787 -0.86218864 0.41640222 31.011499
-2.0286939 -0.72675169 0.40845305 30.840666
-2.1436925 0.24098219 0.43404087 31.169001
-2.3465166 2.3352933 0.54444867 29.927191
-2.1964231 2.4748247 0.49564463 29.25
-2.1703956 -5.7112069 1.1405119 31.036333
-2.1809297 -5.329699 0.95453906 30.115387
-1.8236569 -1.2770289 -0.80468589 8
-1.7035874 -0.9643234 -1.0299631 2.7678571
-1.6647164 -0.64021772 -0.94279385 1.9761904
-1.6832327 0.70716161 -0.92163503 4.9673471
-1.6486152 0.89441955 -0.98853189 2.125
-1.6475288 -2.5344393 -0.47886577 16.178572
-1.6066191 -2.3928013 -0.58153653 15.222222
-1.8012298 -1.3115375 -0.74265164 9.666667
-1.8675345 -0.97821003 -0.56231993 12.346709
-1.6762215 -0.66545039 -0.70195448 6.8666673
-1.7397037 0.65055794 -0.76776594 8.7749996
-1.6328571 0.84387654 -0.79777551 8
-1.6069614 2.6959162 -0.43558705 17
-1.8076481 -5.0463042 -0.093834102 22.326437
-1.6894883 -2.9278498 -0.15705363 21.138405
-1.7044052 -2.6245356 -0.20169996 20.443079
-1.6652943 -1.8326715 -0.088092022 21.412251
-1.7013254 -1.3746185 -0.089280821 21.46533
-1.8532015 -0.98484236 -0.17599501 19.673573
-1.6488887 0.68738484 -0.17763814 19.240232
-1.7029638 0.86431706 -0.14813465 19.722223
-1.9389275 -5.6079669 0.20609294 24.5355
-1.8624023 -5.5679107 0.24601983 24.870417
-1.8462132 -5.0281577 0.16901341 24.416866
-1.8619713 -2.8485596 0.060867015 24.018
-1.8193812 -2.6892521 0.18985561 25.594337
-1.7558585 -2.1391089 0.11536681 24.689331
-1.6609364 -1.8418058 0.20002101 26.494614
-1.7437435 -1.4027833 0.21115892 26.975189
-1.8479955 -0.94004488 0.17243451 26.477629
-1.9656299 -0.78079796 0.1152179 25.501249
-1.6238408 0.65863824 0.031020228 23.888876
-1.667806 1.008067 0.0062111733 23.081688
-1.6568978 1.223138 0.0053155473 23.161751
-1.859578 2.5631058 0.29115596 26.899168
-1.9354365 -5.5023713 0.5855189 27.409187
-1.8305792 -5.0285068 0.61928231 28.008833
-1.8085448 -2.7158217 0.53212309 29.915201
-1.6616771 -1.7698009 0.4492721 30.791
-1.7888315 -1.3749468 0.42698941 30.890041
-1.9010043 -1.0584801 0.4197197 30.839365
-1.8409355 2.5632086 0.51412141 29.820429
-1.7348256 -5.0406175 0.93873096 30.538879
-1.318076 -2.8684947 -1.1420527 8.5
-1.287704 -2.5176179 -0.99770445 8.3029413
-1.4039314 -2.2897675 -0.96506828 8.6142855
-1.3903698 -1.7785443 -0.92700607 7.0500002
-1.3746945 -1.4866102 -0.85229266 5.6428571
-1.5343511 -0.87938696 -0.93208963 2.9379764
-1.5891414 -0.78545344 -0.96313983 1.5
-1.5353479 0.65634668 -1.0325443 1
-1.57532 0.90522146 -1.0120865 1.7666668
-1.2775084 -3.3344431 -0.44368207 17.728571
-1.3459723 -2.9520335 -0.48534688 16.726852
-1.2926111 -2.6263473 -0.59092796 14.561905
-1.4754719 -2.2249448 -0.58637959 14.121726
-1.3698756 -1.6426884 -0.53489482 12.511161
-1.3841907 -1.4040968 -0.65394473 9.7099648
-1.4651864 -0.89634562 -0.58860326 9.7651711
-1.5372552 -0.77751237 -0.65595031 7.4000001
-1.2258414 2.9168456 -0.43994084 17
-1.3379761 -5.2435246 -0.098229438 22.25
-1.4205004 -5.0729237 -0.11722653 22.125
-1.2584586 -4.0046949 -0.070585571 22.3078
-1.2958888 -3.81496 -0.1373188 21.62476
-1.3892102 -3.3365381 -0.17405024 21.010006
-1.4189193 -2.8926163 -0.28852344 19.138889
-1.5225731 -2.6467664 -0.31901604 18.5
-1.5403844 -2.0958548 -0.15556605 20.627789
-1.4199651 -1.7086842 -0.17241034 19.751097
-1.378567 -1.420028 -0.17043418 19.389322
-1.3757174 -0.99181259 -0.22393711 17.56691
-1.2671453 -0.24904458 -0.27034789 14
-1.5329061 0.27804443 -0.37397966 15
-1.3196714 0.77073103 -0.17427368 18.584385
-1.3204387 0.81079209 -0.13048033 19.542299
-1.3135874 1.3375493 -0.21636076 18.556431
-1.2031571 1.793004 -0.3478336 17
-1.3564683 -5.2568192 0.21586238 24.75
-1.4333595 -5.1018891 0.20918614 24.761139
-1.2469571 -4.0327945 0.22825685 25.375
-1.5240549 -3.3883243 0.21382184 25.521088
-1.5440388 -1.7977674 0.12407981 25.318497
-1.4318327 -1.4098214 0.12901944 25.762423
-1.5579731 -1.010605 0.18043369 27.079195
-1.3207231 0.76662141 0.033287704 24.2316
-1.2609228 0.89630884 0.047184065 24.288683
-1.4730707 1.2327367 0.04183457 24.157249
-1.5075295 2.7288263 0.29705405 27.019049
-1.277319 2.8394673 0.29314482 26.875
-1.3915179 -5.2535777 0.68858409 28.475891
-1.4892102 -5.0321207 0.58967882 27.865101
-1.2224907 -4.0410399 0.61231911 29.219893
-1.5210971 -3.3994277 0.57117766 29.554913
-1.5048313 2.7293847 0.52704644 30.060606
-1.266655 2.8394816 0.52556419 30
-1.4320749 -5.2983828 0.96622151 30.533215
-1.5119673 -5.0511498 0.8686868 30
-1.2465246 -4.0697041 0.80508149 31.01825
-1.1416014 -2.8602116 -0.96167678 9.8928576
-1.0556314 -2.6657002 -0.97436428 9.1153193
-0.93058425 -2.2460964 -1.0562334 5.3944449
-1.0062494 -1.8714321 -1.1248875 2.4523809
-0.84609896 -1.52746 -1.1174446 0.66666669
-1.0803053 0.63705629 -0.86490309 1.3333334
-1.0187953 -3.852865 -0.46526814 18
-1.1179857 -3.5151021 -0.47271019 17.583334
-1.114635 -2.9348748 -0.65706646 14.222221
-1.1291437 -2.6889038 -0.6873036 13
-0.8530606 -2.3340189 -0.43659657 15.5
-1.0536981 -1.4254129 -0.62039363 9.2330627
-1.0421437 -1.060357 -0.53921634 8.5484848
-0.90190881 -0.76160794 -0.65376133 2.3333333
-0.90392041 -0.077680655 -0.519207 0.75
-0.82754117 0.59688944 -0.58518416 2.4222221
-1.0538807 -4.7006798 -0.093770228 22.229944
-0.97753346 -4.1019883 -0.17844817 21.228249
-1.0687822 -3.8872025 -0.20417126 20.870331
-1.1874386 -3.5083995 -0.3005099 19.583334
-1.1006291 -1.7626282 -0.1625399 19.760416
-1.1894445 -1.2148675 -0.22964975 17.111111
-1.1798689 -1.1826602 -0.27877271 16.416668
-0.99845803 0.54749489 -0.30187857 13.272653
-0.92029738 0.93060529 -0.1458552 18.633404
-0.96452475 1.4581274 -0.158351 19.344887
-0.93890214 1.7771885 -0.31231791 16.666666
-1.0004486 -4.678514 0.16514806 24.544216
-1.1834331 -4.0512323 0.19718829 25.048634
-1.1791248 -3.9964421 0.037688542 23.5
-1.085427 -1.7445276 0.26289847 28.356583
-0.91379994 1.0008543 0.046587978 24.437401
-0.97370309 1.4322615 0.041171238 24.110849
-0.8423295 1.6086842 0.060707908 24.407749
-0.98812288 2.978487 0.26586574 26.718958
-1.0173296 -4.6925583 0.63413477 28.701763
-1.1750747 -4.0349011 0.61188662 29.256166
-1.10605 -1.7814817 0.41725174 31.0175
-0.99947745 2.9650443 0.51233399 29.918676
-1.0555559 -4.7465119 0.88164943 30.754276
-1.1937033 -4.0415387 0.80249071 31
-0.44833645 -2.8877642 -1.1330552 7.1666665
-0.53339505 -2.5963464 -1.0549322 7.0088892
-0.51348519 -2.2653561 -1.0698248 4.617857
-0.65313029 -1.827228 -1.1254345 0.5625
-0.61432528 1.1035463 -0.84100169 0.5
-0.59186846 1.3412938 -0.86310428 0.75999999
-0.48705229 -1.7690986 -0.64194721 9.5
-0.68308854 -0.9371649 -0.67075962 2.0250001
-0.68556589 -0.74743575 -0.69274861 1.7
-0.62093407 0.67914081 -0.58190024 1.3799999
-0.59855145 1.070981 -0.71557552 1.5426587
-0.62231094 1.2785558 -0.75949979 2.1666665
-0.57690513 -4.8895531 -0.10028137 22.166666
-0.66789871 -4.6148629 -0.15032423 21.674114
-0.58251137 -4.3135047 -0.19047351 21.179193
-0.62074137 -2.6719334 -0.3823534 17
-0.42095119 -2.1238637 -0.28027198 17.333334
-0.47122973 -1.8540205 -0.3460789 15.666667
-0.49013647 -1.4813304 -0.33320728 14
-0.6146363 0.68482238 -0.33345923 10.133095
-0.55299264 1.0693934 -0.17891307 17.087555
-0.58587176 1.4204924 -0.11501194 19.857359
-0.67601645 1.6599478 -0.12559453 20.070095
-0.58994633 -4.8903704 0.21384686 24.904762
-0.72246277 -4.6301279 0.17854358 24.681818
-0.43068916 -4.3433242 0.16269766 24.619047
-0.51778865 1.1007924 0.030606588 24.070976
-0.53828585 1.570997 0.02203506 23.473766
-0.67323512 1.6465527 0.040417515 23.980679
-0.60963291 3.1363935 0.32907408 27.233332
-0.44712609 3.2389512 0.25839415 26.333334
-0.57622802 -4.8815579 0.62756145 28.5105
-0.72213733 -4.6207652 0.60359693 28.548573
-0.42519999 -4.3295436 0.49916223 27.916666
-0.62657881 3.135798 0.55191511 30.174141
-0.43769166 3.2266455 0.53684318 30
-0.55860776 -4.9238596 0.86196405 30.449736
-0.71457165 -4.6767564 0.88192129 30.958334
-0.31222978 -3.4217696 -1.1602899 9
-0.28947052 -3.1694484 -1.157289 8
-0.32289842 -2.6079981 -1.1306958 5.5
-0.25627631 -2.22859 -1.1356471 2.8
-0.13386863 -1.931458 -0.97782123 3.1278846
-0.34646589 -4.2833428 -0.48342192 18.25
-0.0635764 -2.0248802 -0.71510565 8.666667
-0.22340786 -1.8440725 -0.64054847 9.0250006
-0.32107112 -1.4814239 -0.522053 8.395833
-0.10763551 0.89135635 -0.49386644 2.653595
-0.20499252 -4.4346189 -0.095129497 22.125
-0.22473067 -4.2729673 -0.18950206 21.135374
-0.32347062 -3.6260495 -0.095055968 21.937916
-0.12550029 -2.1792903 -0.080227561 21.484556
-0.18342955 -1.7218665 -0.2397044 17.065912
-0.20350453 -1.3646615 -0.33464327 12.857954
-0.29705867 1.0250615 -0.26433015 12.650518
-0.27819267 1.2462878 -0.18130589 17.201891
-0.30950812 3.2779796 -0.0078724762 23.132
-0.18527041 -4.8103595 0.33301842 26.044001
-0.25371197 -4.5407052 0.19057077 24.839161
-0.10893107 -4.2752061 0.18377917 24.892994
-0.31677347 -3.644444 0.21748231 25.666668
-0.35875943 1.171262 0.031672809 24.143499
-0.26052663 1.2941592 0.045579724 24.506042
-0.24569973 1.6544496 0.14011344 26.468035
-0.18141827 3.3457849 0.18207708 25.342836
-0.2623457 -4.6143169 0.5915978 28.499903
-0.12223285 -4.2360907 0.591591 29.009892
-0.32594243 -3.6548636 0.55587524 29.626499
-0.21039683 3.3294346 0.56064874 30.070992
-0.27563792 -4.3383956 0.82507378 31.019344
0.27488852 -1.8375335 -0.97587931 2.0757935
0.20503633 -4.0459576 -0.4758831 18
0.17418174 -2.1624186 -0.47024742 13.742857
0.21568139 -1.872116 -0.73203617 7.0229592
0.18847884 -1.4618444 -0.45964891 9.8583336
0.1603262 1.0670779 -0.55577469 3.0289412
0.19580331 1.2604557 -0.53738105 6.25
0.26327115 3.5976977 -0.41925883 18
0.1293015 -4.1208382 -0.15500604 21.449268
0.037813902 -2.4129155 -0.33926001 17
0.1405455 -2.0956459 -0.17126979 19.535873
0.19322908 -1.9321612 -0.19205604 18.689199
0.11727872 -1.3265043 -0.33376575 12.286111
0.23327269 -1.1679029 -0.32798406 11.4
0.098513409 0.98509258 -0.34985888 8.6624155
0.15380219 1.4450555 -0.15424612 18.47538
0.19781493 1.6680043 -0.17375775 18.640648
0.34293756 2.1489878 -0.30114177 17
0.32350758 3.5571644 -0.11361258 21.68825
0.21639141 -4.6006441 0.20497237 24.943127
0.29670385 -4.1484013 0.2267192 25.39525
0.23438519 -2.0401528 0.0050435499 23
0.1756507 1.4461938 0.043252464 24.239012
0.10847086 1.6204189 0.041968424 24.066813
0.15604894 3.5060849 0.22393942 25.65629
0.36230019 3.6097598 0.2299403 25.666666
0.1956255 -4.5555778 0.62001932 28.860191
0.23336864 -4.1046171 0.5931229 29.246643
0.37373677 -3.9858422 0.65775555 30
0.20268622 3.5250926 0.57668912 29.89185
0.38444823 3.6121666 0.60709774 30.116001
0.38300571 -4.4392343 0.83433652 31.047501
0.17376046 -4.320766 0.80961269 31.043554
0.71213394 -2.5822346 -1.1319962 5.5
0.61870295 -2.2441578 -1.1109966 3.5
0.56676149 -1.6991165 -0.9760555 1.0523809
0.64536399 -1.541268 -0.97248709 0.33333334
0.79179287 1.4159846 -0.96506572 0
0.79488534 1.9669125 -1.0583273 2
0.75862944 -3.2913089 -0.61500531 15
0.7077564 -2.1038759 -0.4196682 14.777778
0.58839542 -1.8224232 -0.46095341 12.622223
0.58372259 -1.2939022 -0.5318166 7.1666665
0.59639382 -1.0773126 -0.55470151 4.0424242
0.78426367 -0.50910789 -0.43711069 3.875
0.52549976 1.148084 -0.56556481 4.742424
0.69777155 1.3525981 -0.57396966 7.2222228
0.59239197 -1.8322288 -0.18120034 18.8531
0.72431678 -1.3187716 -0.12954213 19.095905
0.61780018 -1.0096146 -0.33180845 10.547618
0.74065149 1.1545594 -0.30882969 13.012121
0.54663008 1.4760662 -0.31137657 14.15625
0.6161021 1.6684359 -0.14759919 19.373671
0.63535976 2.206274 -0.15113032 20.028816
0.74283153 2.5354304 -0.30866358 18
0.66487044 2.9250174 -0.23791215 19.543333
0.41921246 3.5707576 -0.080870792 22
0.62322974 3.7481778 -0.15556598 21.245832
0.40091088 -4.5210705 0.20770161 25
0.51550716 -4.0787411 0.23847744 25.518328
0.71197605 -3.9143159 0.21123937 25.298147
0.6240533 -1.8216046 0.010103781 23
0.74337369 -1.3356925 0.017899003 23.369165
0.67301005 1.7262387 0.10589828 25.403114
0.61702114 2.2612512 0.060811237 24.073605
0.58337748 3.7015944 0.21465158 25.408625
0.50534606 -4.1756449 0.57162207 28.941542
0.6482839 -3.9050078 0.55917215 29.085524
0.64574325 3.7291913 0.63700712 30.117245
0.660972 -4.3035827 0.82255322 31.044209
0.85071439 -2.8218381 -1.1519576 7
0.98430848 -2.5676081 -1.1433437 5.916667
0.91540205 -2.2862303 -1.0966898 5
1.0207369 -1.7265663 -1.0142914 1.85
0.90032923 -1.5176214 -0.98768246 0.84523809
0.85846865 -1.1124742 -0.81931347 0
0.84404242 1.4184744 -0.89802372 0.94523805
0.95502889 1.8318278 -1.0430741 2.7390475
0.94754148 2.0700693 -1.0464276 4.5
1.0942227 -3.3866112 -0.51335502 16.5
0.95843524 -2.0376425 -0.42582965 15
0.89009297 -1.8140241 -0.42206863 14.05
1.0896745 -1.5015969 -0.4212693 13.25
0.87009209 -1.1359602 -0.60134375 5.0412698
0.87544638 -0.63590127 -0.44775495 4.8571429
0.92089915 1.1778575 -0.45776084 9.9499998
0.86707258 1.3223206 -0.57100344 7.4455781
1.1619244 -3.61902 -0.14565341 21.1
0.94108415 -1.7987391 -0.29792741 16.283333
0.99889886 -1.444865 -0.38741034 13.666667
0.91818583 -1.1678714 -0.38927945 12
0.87905824 -0.6103313 -0.3689748 8.5285711
0.84845537 1.1321608 -0.27370942 14.29318
1.0088674 1.358188 -0.28610331 16
1.0542287 1.8204579 -0.18006484 19.116938
1.0156384 2.2010729 -0.32941842 16.833334
1.1025709 2.4705601 -0.31748399 18
0.85380262 2.9674256 -0.28665429 19
0.82876289 3.8203754 -0.11307792 21.773584
1.090897 -4.1968026 0.38696063 27.055
1.0435728 -3.7620676 0.23303905 25.578064
0.85527575 -1.5010039 0.012872957 23.046499
1.0420963 1.8699065 0.15458235 26.045914
0.83597279 2.050292 0.10657101 25
0.97560602 3.8804255 0.28790015 26.029167
0.98050219 -4.19208 0.61633408 29.250351
1.0915707 -3.736954 0.5789786 29.421921
1.1473851 -3.5941994 0.49956378 28.7635
0.95980984 3.8726392 0.66619861 30.080957
0.87751806 -4.2274399 0.81543458 31.04571
1.2301364 -2.6722348 -1.1504843 7
1.4010473 -2.114248 -1.129369 4.333333
1.357711 -1.7885811 -1.0714726 3.1761904
1.4460107 -1.3509538 -1.1195213 0.72222227
1.4549671 -1.1728739 -1.1100827 0
1.4239382 0.19770621 -0.83422965 0.41999999
1.527325 0.95855749 -1.0672568 0.25
1.3793267 1.4681679 -0.95062375 3.4756262
1.242294 1.6306893 -0.95045274 3.8670635
1.2913649 -3.6866212 -0.56928706 16.5
1.4350792 -3.3119588 -0.47774625 17.25
1.5403965 -3.1705666 -0.55382746 16.333334
1.2437985 -1.8806175 -0.42621425 14.666667
1.5352242 -0.22202936 -0.57016683 6.6399999
1.4230627 0.14796259 -0.59080029 4.9289804
1.3897159 1.531883 -0.6168465 9.9524603
1.2551188 1.6223623 -0.71246123 7
1.4505757 -4.0295849 -0.10420859 22
1.458751 -3.8142707 -0.10433937 21.879551
1.3788682 -3.5097756 -0.1158038 21.754068
1.5639569 -0.14930862 -0.32113466 13.740457
1.5470978 0.037817072 -0.29845685 13.474206
1.4466212 1.5318295 -0.35646859 15
1.3121924 1.8610452 -0.16047309 19.755917
1.372887 2.1108055 -0.21645968 19.153376
1.3399221 2.4285455 -0.32408762 18
1.2603071 3.8438401 -0.37532499 19
1.2948911 4.0108461 -0.39101282 19
1.3633741 -4.0554218 0.26079842 25.478329
1.3561682 -3.8574703 0.14105628 24.416405
1.3072864 -3.5390835 0.021156168 23
1.2308251 1.9380156 0.15718389 25.914263
1.2386492 2.3001673 0.34450746 28.655251
1.2751838 3.9770379 0.31393954 26.166666
1.2538811 4.0104799 0.29735911 26
1.3618209 -4.0681648 0.68327659 29.851177
1.388044 -3.8728766 0.53526062 28.5
1.2393552 2.3147993 0.44538167 30.280251
1.3747886 3.7720711 0.59037042 29.23531
1.2629527 4.0124135 0.71557385 30.222221
1.3591148 -4.0985155 0.81530237 31
1.5734653 -3.9984765 0.80317181 31
1.2709314 4.0038118 0.80778819 31
1.9087694 -2.5507667 -1.1385241 7.75
1.6989055 -2.2558386 -1.1336632 6.1444449
1.744828 -1.8312098 -1.1251565 4.4791665
1.7606922 -1.395033 -1.1189191 2.2333333
1.926149 -0.9280057 -0.98860145 3
1.8605207 -0.55966032 -1.0638393 0.8458333
1.7123142 0.36059377 -0.97417241 1.2833333
1.8184819 0.56428719 -0.9540841 1.7659092
1.9017001 1.0343374 -1.0406259 2.3680556
1.7571325 1.4462098 -1.0332277 3.6111112
1.8739568 1.6827183 -1.0400043 5.6071429
1.8094388 -3.0426183 -0.53424555 16.177271
1.7659342 -0.91704756 -0.4974601 12.041667
1.8743486 -0.63167566 -0.54868352 10.604253
1.7190894 -0.34855133 -0.53834409 9.3015881
1.7044709 0.28084227 -0.61731398 7.8168354
1.8763609 0.56244767 -0.62620598 7.4083333
1.9889816 0.8589856 -0.59684747 11.5
1.6070106 1.5881617 -0.59723252 12
1.6983219 1.6612318 -0.6081723 12.333333
1.7838179 -3.7725074 -0.088141628 22.035454
1.8135805 -3.3462493 -0.22652201 20.278646
1.6923175 -0.89668417 -0.34250399 15
1.834325 -0.63410395 -0.3355099 14.994231
1.7368101 -0.12640685 -0.16780177 18.224386
1.7722957 0.14101537 -0.12741601 19.530739
1.715866 0.50710672 -0.35441133 13.900001
1.985804 2.3033984 -0.11298998 21.366728
1.8293561 2.4872606 -0.15015049 20.775333
1.8515235 -3.7792265 0.11320619 24.115913
1.9457839 -0.068188898 0.2006336 27.56115
1.8947073 0.09013404 0.17383572 27.058872
1.9755096 2.3424647 0.052116975 23.705557
1.8700129 2.5677526 0.13450277 24.740606
1.8708092 2.8165576 0.16373685 25.004751
1.8153665 -3.8778882 0.63631022 29.427084
1.7971488 3.8795261 0.62710845 29.254633
1.843357 4.2566943 0.63297296 28.888756
1.8584024 -3.8682666 0.80233818 31
1.891138 3.878458 0.81842071 31.060289
1.8195212 4.2688131 0.8794812 31.122248
2.1758254 -3.0886846 -0.8468622 12.75
2.2240143 -2.5422015 -0.97903466 10.399484
2.0856497 -2.1626024 -1.1323607 7
2.2325945 -1.7466326 -1.0935464 6.6875
2.26737 -1.4298936 -1.0002043 5.7129631
2.2659392 -0.88577724 -0.96222752 5.752368
2.1350095 -0.56001037 -1.0078911 3.625
2.2013435 0.73352295 -0.97540659 5.1095238
2.222605 0.97453022 -0.93524969 6.6479163
2.2187698 1.433265 -1.0469224 5.727778
2.1310923 1.8789455 -1.0418471 7.4000001
2.2790263 2.0417352 -1.0367637 9
2.0084698 -3.2424967 -0.48657998 17
2.1946785 -3.1325512 -0.59123069 16.222221
2.2222803 -2.5659454 -0.72731829 13.428572
2.3749106 -1.7646854 -0.41983116 17
2.2592885 -1.4510329 -0.60940558 12.869964
2.1431763 -0.89345676 -0.64156139 10.383928
2.0423737 -0.64931732 -0.64517266 10.5
2.0530298 0.68812782 -0.56361091 12.158333
2.0690346 0.94918793 -0.54067445 12.106317
2.1259396 1.2272586 -0.48883504 14.333333
2.197665 3.6855607 -0.45697016 18
2.220871 -3.6648321 -0.072653554 22.25
2.2636855 -3.3209145 -0.14352477 21.390343
2.2527049 -3.1581326 -0.21659113 20.572601
2.3908939 -1.5305059 -0.097877674 21.5
2.2568309 -0.43475953 -0.37662396 15.208334
2.3000729 -0.37897268 -0.38598904 16
2.2640378 0.33719873 -0.24714088 17.708334
2.1448193 0.69761121 -0.31973159 16.458334
2.1498241 1.0436149 -0.18761173 19.205093
2.139699 1.2520348 -0.27050307 18.194445
2.0786185 2.183239 -0.15475976 20.628458
2.1925063 -3.7013099 0.18345368 24.743237
2.2868273 -3.4153025 0.042606615 23.423203
2.0170734 -0.071718723 0.098953597 24.986582
2.281965 0.22701935 0.14367038 25.638672
2.3588662 1.0000182 0.092204101 24.437414
2.1202068 2.1565685 0.14543061 24.997189
2.0188291 2.4246848 0.15526038 25
2.2081778 -3.696764 0.64980602 29.541666
2.1580009 4.1790843 0.6710543 29.088905
2.2015398 -3.7102559 0.80618531 31
2.1206822 3.9597025 0.85563731 31.081749
2.1977656 4.0240746 0.86382049 31.117374
2.4652107 -2.4664671 -0.89569449 11.666667
2.4983866 -2.1367784 -0.9822672 10.105808
2.4603879 -1.9772071 -1.003889 9.833333
2.5777738 -1.4274805 -1.086455 6.5555558
2.4766014 -0.84244525 -1.0969107 6
2.4620509 -0.75049323 -1.0520493 6.3333335
2.6420488 1.0615662 -1.0462927 7.9166665
2.672106 1.4013938 -1.0452291 8.0666666
2.5146363 1.7928065 -1.0398369 8.5222216
2.5286505 2.2249277 -1.0275583 9.4866667
2.6655612 2.5021236 -1.0202689 10.75
2.407665 -3.3320856 -0.77970892 15
2.6606247 -2.9310358 -0.56886572 16.689091
2.4515445 -2.4749534 -0.71558249 14
2.453244 -2.0323675 -0.5564177 15.277778
2.4363811 -1.97849 -0.63031232 14.277778
2.4428675 -1.4777026 -0.40512452 17
2.6753027 -0.48926207 -0.58153856 14
2.7046664 4.0704842 -0.55506104 18
2.5935891 -3.275306 -0.097900867 21.907249
2.6294937 -2.9954364 -0.25592664 20.183781
2.5876615 -1.6912333 -0.25710028 19.275499
2.5801349 -1.4261669 -0.11460137 21.158972
2.6710889 -1.0459483 -0.16338591 20.319323
2.6320302 -0.51092029 -0.15289851 20.292112
2.7927296 -0.35131812 -0.0034916007 23
2.7093256 0.22538385 -0.12121738 20.914537
2.711128 0.53223574 -0.078162678 21.723669
2.5225828 0.92173547 -0.16936886 19.967628
2.416791 -3.6212103 0.29800242 26
2.6000483 -3.3985436 0.11893325 24.146944
2.7321556 -1.3861151 0.075783975 23.886534
2.6860824 -1.0289979 0.032864165 23.6164
2.6194072 -0.52686143 0.05915435 23.852667
2.5457094 0.32992092 0.10155311 24.784168
2.4369097 0.92087913 0.097272903 24.650263
2.4133983 4.2662139 0.13817763 24.113501
2.6490536 4.6661777 0.34945208 25.681751
2.4026101 -3.6212304 0.70696336 30
2.6019449 -3.5123656 0.63636088 29.277779
2.5499651 4.299664 0.65367013 28.651733
2.6659546 4.571804 0.60398579 27.871225
2.4005067 -3.6179128 0.81085515 31
2.6710792 -3.4932287 0.81213331 31
2.5450413 4.2683802 0.9428767 31.119394
2.6650527 4.647059 0.8861593 30.117376
2.8843834 -2.6203463 -0.88740104 13.083333
3.0210593 -2.2537596 -1.0485981 10.586668
2.9786048 -1.8521435 -0.94200003 11.75
2.8651731 -1.5357517 -1.1033978 9
2.8853211 1.1584132 -1.0547512 9
2.8785102 1.4730492 -1.0460048 8.75
2.8873196 1.8299602 -1.0340176 9.916667
2.8911319 2.2382793 -1.0270009 11.291666
3.0903969 2.6091778 -0.95893341 12.82
3.0627139 2.9192953 -1.008577 12.666667
2.9939756 -2.8994067 -0.55756384 17.157143
3.0535743 -2.665293 -0.61816257 16.360001
3.1625695 2.7024975 -0.74119592 15.25
3.1455874 4.2320004 -0.67595869 17
3.0307965 -3.2615683 -0.11934828 21.77211
2.9365337 -2.8849971 -0.18017812 21.056995
3.1116815 -2.765368 -0.16819784 21.379501
2.8195512 -1.6742527 -0.38905439 18
2.9319069 -1.4042133 -0.2972354 18.766666
3.0569811 -0.98321825 -0.3753655 17.5
2.9819727 -0.51336002 -0.21776046 19.659058
2.8521423 -0.35524493 -0.081807189 21.582664
3.0181749 0.18441559 -0.34952527 17.5
2.9017098 0.69924676 -0.068606578 21.946474
2.9699914 0.85105079 -0.16964751 20.416666
2.935956 -3.3389847 0.18718871 24.854317
2.9309332 -2.9376531 0.21504685 25.123348
2.8358312 -1.3466486 0.20122734 25.535498
2.9147177 -0.47183189 0.035645295 23.472418
2.8970914 -0.37651131 0.051646285 23.581875
2.9661458 -3.317924 0.61891526 29.022999
2.9654586 -2.9304233 0.57048625 28.816471
2.8322539 -1.3688285 0.51343906 30.161875
3.0716758 4.2551923 0.64357471 28.174999
2.9227436 4.4769487 0.63142765 28.03903
3.0114863 -3.3180828 0.84325576 31.01553
3.1739664 -3.198312 0.8408457 31.067499
3.0361009 4.306016 0.9096899 30.320824
2.9811332 4.4194727 0.97499889 30.779625
3.3594842 -2.6470129 -0.97387326 12.998571
3.2969248 1.959847 -1.0339961 11.277778
3.4236851 2.3180063 -0.95785218 12.77381
3.2768202 2.6227691 -0.8772887 13.614286
3.4298553 3.2912889 -1.0202326 13.666667
3.5717566 3.6511014 -0.82778573 15.4
3.3857224 -3.0503759 -0.76361907 15.5
3.2718601 -2.5787113 -0.49291411 17.583332
3.4015734 -2.3226273 -0.44769201 17.9
3.5536625 2.3272796 -0.70292979 16
3.3144708 2.6272311 -0.729545 15.555554
3.349299 3.0111229 -0.6290133 16.6875
3.5814841 3.5519996 -0.59336567 18
3.4194758 3.8504725 -0.67300904 17.007143
3.2145965 -3.2067342 -0.29179099 20.03525
3.4640436 -3.0851333 -0.22753879 21.070688
3.3486226 -2.5922551 -0.20758836 20.729343
3.4311781 -2.3323338 -0.36056533 19.25
3.2449198 -1.3758918 -0.25565439 20
3.5456691 -0.33717409 -0.073932618 22.021875
3.5165064 1.9743445 -0.097438298 22
3.5135505 2.0708454 -0.12957485 21.54092
3.5831594 3.5198932 -0.17942378 21.25
3.231019 -3.2192011 0.088278919 24.070499
3.4753652 -3.0130403 0.23085386 25.093416
3.5229368 -2.6444914 0.23690312 25.222685
3.5403118 -0.31889194 0.077317476 23.810001
3.5538929 1.9231873 0.033012055 23.388891
3.5283172 2.0326996 0.076042771 23.868332
3.591737 3.5203147 0.19295056 24.5
3.4407673 -2.9740179 0.53207773 28.057789
3.4648435 -2.6480789 0.56862277 28.622591
3.558409 3.5576644 0.58981556 28
3.3831027 3.8337288 0.60770059 28.021542
3.2218711 4.0094538 0.61777669 28
3.2185044 -3.2416952 0.83470291 31.070333
3.4116776 -2.9646802 0.84036195 31.054855
3.4828982 -2.6494493 0.81666881 31.071501
3.5841269 3.5555971 0.82936561 30
3.4225094 3.8289843 0.89673012 30.385714
3.2260175 4.0169621 0.91176176 30.5
3.707247 -2.5146477 -1.0056428 13
3.7813883 -2.2955177 -1.0360337 13.166667
3.6416261 2.2615469 -1.0196024 13
3.6324196 3.4707603 -0.97243118 14
3.9441323 -2.3692737 -0.43901128 19
3.7265735 1.3481201 -0.75294691 15
3.6022928 2.3254457 -0.60570812 17
3.9337823 2.7235835 -0.59692627 17.357143
3.8451929 2.9861159 -0.54471225 18.041666
3.6664364 3.3774431 -0.51089257 18.433334
3.732975 -2.88061 -0.22841378 20.826307
3.8133578 -2.6918342 -0.13815267 21.568375
3.6339319 -0.31756318 -0.15657607 21.339125
3.8358557 1.0133176 -0.33095011 19.2745
3.8685966 1.2617699 -0.13415059 21.434704
3.6694074 1.6638907 -0.1395143 21.3025
3.6386645 2.2237592 -0.12019639 21.602125
3.9708865 2.5877898 -0.19067749 21.0495
3.8511224 2.9559286 -0.20061952 21.125
3.6688526 3.2907336 -0.12165544 21.866667
3.7703092 -2.9390104 0.13871482 24.278286
3.8297374 -2.5191581 0.23367637 25.223621
3.940696 -2.3976288 0.19377707 24.916668
3.6396217 -0.26636079 0.079697803 24.087999
3.9227567 0.9488737 0.12426541 24.119392
3.9344754 1.2911363 0.12563728 24.137148
3.7258673 1.833648 0.19800885 24.961868
3.8148561 2.1733961 0.21563146 24.998055
3.9629331 2.6993995 0.10947382 24
3.8408828 3.0156288 0.24642572 25.08256
3.6947417 3.3380446 0.30040964 25.47279
3.7015753 -2.9437768 0.53299063 27.845812
3.809979 -2.54018 0.60736734 28.719364
3.9055891 -2.394088 0.51877987 27.845749
3.9247754 0.94697225 0.67099196 30.128298
3.9807124 2.3192036 0.60438007 28.5625
3.7884288 3.066438 0.6066401 28.269842
3.6561751 3.3418372 0.61416674 28.244446
3.8279591 -2.9065678 0.89867854 31.06925
3.8928289 -2.4634058 0.85685515 31.014648
3.9902182 2.336437 0.87075245 31
3.790858 3.0899055 0.8778137 30.619049
3.6798692 3.3354802 0.87193996 30.448851
4.0273871 -2.3377295 -1.1108398 13
4.3817973 -2.6769457 -0.50847161 18
4.034255 -2.3417041 -0.44250253 19
4.1969714 1.6849737 -0.63953322 16
4.015933 2.6174245 -0.53568882 18.25
4.0166225 -2.8421786 -0.2376015 21.0725
4.0131273 -2.7206752 -0.23412269 21.073
4.2328691 0.67398989 -0.089412309 21.755835
4.0574675 1.1420864 -0.10451686 22.099499
4.2007146 1.5094867 -0.11212008 22.103001
4.1738615 1.678995 -0.28066695 20.28425
4.0005283 2.3569684 -0.11078075 22
4.0228744 2.5874758 -0.17423424 21.178572
4.0286555 -2.850594 0.10626953 24.0725
4.1704998 -2.548023 0.23239359 24.864325
4.2022853 -2.2995539 0.26585877 25.538437
4.2356367 1.0653293 0.19088966 24.756773
4.2881646 1.4119599 0.26064888 25.30525
4.191431 1.656752 0.35038173 26.208334
4.0187349 2.3621051 0.21449935 25
4.0621157 2.5210745 0.27379671 25.38052
4.1344123 -2.5056713 0.69199622 29.02639
4.1799045 -2.2957339 0.61338162 28.621037
4.2802114 1.063727 0.57047755 28.566629
4.3121948 1.325887 0.58603144 28.572727
4.175477 1.7509547 0.60389221 28.69487
4.0553756 2.1742411 0.5920952 28.454544
4.0452251 2.496804 0.6169768 28.5
4.1515007 -2.661675 0.92220664 31.058102
4.1115756 -2.3123996 0.88725871 31.047583
4.3445034 1.1508018 0.84091645 31.066
4.3277745 1.3319683 0.85069329 31
4.1814303 1.7778342 0.8532322 31
4.063664 2.1907337 0.8692767 31
4.0605083 2.4897861 0.897596 31
4.5555305 -2.5939815 -0.51123565 18.5
4.7153773 -2.2634604 -0.17547143 21.215166
4.552237 0.21238421 -0.12206474 21.5665
4.5389843 -2.6103563 0.15240663 24.324207
4.53123 -2.2082214 0.28856966 25.430565
4.5697341 0.72738612 0.19557951 24.608334
4.5366631 0.9408173 0.20583954 24.79365
4.5552573 -2.5075128 0.64225686 28.06625
4.6113563 -2.1137857 0.6380626 28.334547
4.7240205 -1.9757268 0.71081871 29.078751
4.7998037 -0.51190001 0.66110653 29
4.7434535 0.3601478 0.75772917 29.792
4.6151896 0.5782938 0.65616989 28.940784
4.5092859 0.90481585 0.59921694 28.509907
4.7570477 -2.4581337 1.0131572 31.071751
4.6555486 -2.1550095 0.94017619 30.823021
4.7471967 0.34487456 0.89022112 31.035801
4.6529527 0.54969049 0.88192445 31
4.531764 0.91140068 0.8677929 31
5.0397301 -2.3670328 -0.52846974 19
4.9556503 -2.1889195 -0.17648333 21.618937
4.8860435 -2.4541173 0.11760718 24.07675
4.9249015 -2.2474487 0.14559819 23.975657
4.945858 -1.9378817 0.28200635 25.152927
5.1882548 -1.2369545 0.30272993 25.5
5.0489926 -0.86809492 0.295625 25.35
4.9562426 -0.53103358 0.29914826 25.50794
5.1108932 -0.35796911 0.24405475 25.186857
5.0249186 -2.2646761 0.6277945 28.079376
4.9038668 -1.9320415 0.62717551 28.089552
5.1787019 -1.2858006 0.57288969 27.596216
5.0497313 -0.93036962 0.61678374 28.090117
4.9198365 -0.57017052 0.63572067 28.463337
5.0875525 -0.34602487 0.5374701 27.542749
4.8403974 -2.1463051 0.98678756 31.077271
4.9490776 -1.9382097 0.94594228 30.602062
4.9865956 -0.54256648 0.81585085 30.013166
4.9733162 0.24221712 0.93153447 31.091499
5.4199462 -2.1944394 0.18826875 24.479084
5.4207244 -1.7081711 0.29946759 25.131121
5.2626634 -1.344911 0.30439246 25.314693
5.3415995 -1.1072129 0.32809946 25.53488
5.3794975 -0.76241666 0.31814605 25.500763
5.2281504 -0.32575762 0.23121972 25
5.472609 -2.153805 0.54435498 26.843185
5.4588184 -1.8006489 0.63540882 27.759657
5.3278008 -1.4359721 0.64458627 28.015268
5.275095 -1.0687903 0.56544852 27.496044
5.2903514 -0.66127533 0.74107283 29.0865
5.3467875 5.9288626 0.76084018 27
5.43255 -2.1444931 0.97426748 30.166428
5.4972754 -1.8801725 0.9810378 30.261553
5.3429384 -1.4223609 0.89054775 29.924929
5.5479722 -1.0387932 1.0208591 30.737183
5.3654923 -0.58432221 1.006687 30.983349
5.2408719 -0.37747335 0.91369683 30.5895
5.3383169 5.9233246 1.0406694 28.5
5.5494332 5.4587584 1.4748877 31.056812
5.420392 5.8006144 1.433697 30.723978
5.3240986 6.004518 1.3507369 30
5.6414518 -2.0676372 0.31832883 24.799999
5.7866435 -1.8165045 0.29865539 25.078934
5.7311821 -1.561407 0.30947495 25.020973
5.6253743 -1.9391164 0.55270588 26.873665
5.9609661 4.7021708 0.65514213 26.611109
5.7029076 5.1745543 0.71604908 27
5.6790457 5.2636433 0.64824927 26.5
5.6850519 -1.7340764 1.1272862 31.077126
5.7148676 -1.3662105 1.0695298 30.686277
5.6143813 -1.16215 0.99933654 30.362333
5.9252315 4.6711907 0.99421716 28.555555
5.6936779 5.1655455 0.98742658 28.5
5.6546636 5.2523632 0.99695534 28.444445
5.9464626 4.6717491 1.3437315 30.5
5.7141871 5.1751289 1.3575701 30.5
5.6577945 5.2765403 1.3500547 30.359333
6.1604137 4.2195377 0.6550051 26.65
6.0495429 4.5491614 0.59392542 26.208334
6.2671537 3.9555297 0.94943893 28.5
6.139668 4.1924739 0.97327381 28.5
6.0286775 4.4552841 1.0068462 28.666666
6.2720361 3.9579873 1.3037165 30.5
6.1501832 4.2299533 1.3469399 30.583334
6.0279522 4.4863548 1.3542804 30.611113
