# .PCD v0.7 - Point Cloud Data file format
VERSION 0.7
FIELDS x y z intensity
SIZE 4 4 4 4
TYPE F F F F
COUNT 1 1 1 1
WIDTH 1186
HEIGHT 1
VIEWPOINT 0 0 0 1 0 0 0
POINTS 1186
DATA ascii
-4.1841016 -0.28176835 1.2737461 30.0035
-4.0997429 2.2732146 1.3003967 29.174
-3.8156049 1.172202 -1.0449014 12
-3.744194 1.4394369 -1.0176845 12.5
-3.8177178 1.7592689 -1.0287975 12.666667
-3.792541 2.3021333 -0.88053554 14.894643
-3.8046904 -0.31030607 -0.50290966 17.494444
-3.839982 2.3211215 -0.61688119 17.352272
-3.8189802 -0.31318152 -0.13702561 21.320238
-3.8001299 2.29826 -0.14345282 21.606665
-3.8228388 -0.32342532 0.24770273 25.022356
-3.8171346 2.2924113 0.2577934 24.745953
-3.8542035 -1.6967312 0.61176753 29.211903
-3.7583826 -1.3945076 0.65601498 29.288782
-3.8425529 -1.0754579 0.71885639 28.721369
-3.7740085 -0.34222195 0.63436925 28.48016
-3.8507941 2.2814441 0.61347914 27.104733
-3.7360697 -1.2647442 0.84305173 30.509834
-3.7662995 -0.97433668 0.92870486 29.965937
-3.6259563 -0.77484924 0.84402931 28.005501
-3.8195174 -0.34517181 0.92817789 30.460699
-3.846653 2.2712777 0.96887749 29.713726
-3.8222306 -0.27365956 1.348026 29.501375
-3.7797406 0.19400801 1.3857539 31
-3.7767045 0.49046907 1.3919232 31
-3.7665801 1.0077901 1.4050775 31
-3.7197936 1.5772905 1.4208004 31
-3.7225552 1.8339118 1.4306451 30.174999
-3.7995651 2.1957011 1.3432142 30.55821
-3.3497484 1.0475582 -1.0490687 10.5
-3.3826756 1.356529 -1.0162972 11.666667
-3.4463882 1.8223894 -1.0025688 12.416667
-3.3696082 2.2337117 -0.91048676 13.773334
-3.2907293 -0.40024272 -0.52209574 17
-3.4423912 -0.37533933 -0.52979356 16.708334
-3.340661 2.238157 -0.57715541 17.066668
-3.233237 -0.40588069 -0.15151377 21
-3.4650867 -0.37710616 -0.11745927 21.430555
-3.3840878 2.2293785 -0.12700221 21.682993
-3.3203428 -0.40924859 0.21818943 25.25
-3.4553206 -0.38816229 0.2211301 24.976191
-3.3747101 2.219975 0.22004461 24.586309
-3.3649247 -0.41130191 0.59861815 29.166666
-3.4936583 -0.3885583 0.60541284 29
-3.3806396 2.2039218 0.60416782 27.200001
-3.4153063 -0.41452104 0.90663409 30.666668
-3.5770833 -0.38650104 0.898072 31
-3.3540013 2.1888731 0.97722274 29.714624
-3.3586979 -0.41598573 1.2943133 31
-3.2851999 -0.26400352 1.3699005 30.00275
-3.4491322 2.1697755 1.4001638 30.391832
-2.819772 -0.45355141 -0.90757066 10
-2.8300805 0.73636174 -1.0643524 8
-2.9735124 0.95593768 -1.053817 9
-3.0012469 1.3686048 -1.0191542 10.583333
-2.9913297 1.8004404 -1.0169448 11.083334
-2.9589314 2.1599383 -0.91410428 13.033333
-2.9970312 -0.44310969 -0.56943035 15.649999
-3.0131733 2.1780512 -0.54397774 17.563889
-3.008255 -0.44322097 -0.17961872 20.520327
-3.0322471 2.1727335 -0.17929369 21.20204
-3.0015805 -0.46522307 0.2414021 25.418068
-3.0168288 2.1597199 0.24914025 24.803703
-2.982517 -0.48467761 0.57678491 28.923435
-2.9749153 2.1405492 0.62172377 27.932365
-2.9854426 -0.48309597 0.92847294 30.185183
-2.966718 2.1316657 0.95032752 29.838478
-2.9131174 -0.49475062 1.304525 30.0035
-3.1750638 1.9887158 1.4346257 30.175251
-2.9204638 2.1170902 1.3547019 30.58725
-2.598218 -0.48996589 -0.89239657 9.4250002
-2.5755315 -0.073768832 -1.0450867 11
-2.573725 1.0165564 -1.0490111 8.75
-2.5782766 1.4159719 -1.0288919 9
-2.5235908 1.8703957 -1.0138035 9.9250002
-2.5184169 2.0828803 -0.91759944 12.759568
-2.5945094 -0.50536615 -0.56655455 14.953159
-2.5920846 2.094193 -0.5711543 17.094246
-2.5985467 -0.51106364 -0.1972637 19.98625
-2.588891 2.0859904 -0.16307126 21.232576
-2.6154282 -0.53248525 0.2546446 25.590305
-2.5848913 2.0887628 0.21086484 24.928761
-2.6373677 -0.54565191 0.58615178 29.090963
-2.5441818 2.0772314 0.6076864 28.680923
-2.5016029 -0.57410228 0.88461089 31.002499
-2.5452828 2.0577786 0.90125191 29.942362
-2.5128517 1.7683572 1.3475484 28.893221
-2.5255332 2.0295665 1.3286819 31
-2.1670535 -0.57050067 -0.83669078 9.5
-2.2309458 -0.16562833 -1.0462477 10
-2.1434577 0.99080437 -1.0575519 7.2222219
-2.1613739 1.3228219 -1.0351377 9.3839283
-2.1087205 1.8742448 -0.98287648 10.208875
-2.1599362 2.0188065 -0.92905617 12.166667
-2.2045267 -0.5713706 -0.61143857 14.012699
-2.0102885 1.9988967 -0.60252094 14
-2.2177825 2.030607 -0.62356383 15.833599
-2.2023683 -0.57797176 -0.12506859 20.977909
-2.0373819 1.9924086 -0.17159595 20.686869
-2.2069232 2.0209267 -0.14262319 21.329367
-2.1949396 -0.59728587 0.26690593 26.200468
-2.0186763 1.9951 0.13221864 25
-2.1977015 2.0284383 0.25761852 25.334738
-2.1924574 -0.60645831 0.56311274 29.77973
-2.2056773 2.0372932 0.59380609 28.336576
-2.1243737 -0.62442487 0.9444136 30.877625
-2.0886085 1.9808906 0.99783874 29.131001
-2.2514231 2.0292983 0.90446419 29.312237
-2.1842256 -0.5123747 1.3591143 31.0035
-2.1569219 -0.21761206 1.2842693 28.008751
-2.1916447 0.14673121 1.2920625 28.007999
-2.1639793 0.734725 1.2248054 25.014
-2.1319289 1.1800777 1.3202441 28.095249
-2.0852461 1.4319264 1.4109571 31.176001
-2.1572945 1.9348288 1.3276151 29.774801
-1.7858238 -0.63442922 -0.84958541 7.569231
-1.8424875 -0.18988496 -1.050964 8.4523802
-1.7022699 0.30064419 -1.066192 5
-1.6835002 0.76894498 -1.0679992 0.5
-1.7406616 1.0318389 -1.0491014 7.0555558
-1.7721614 1.4622025 -1.0365988 5.5
-1.7722074 1.9158869 -0.94513363 11.250399
-1.9494433 2.0075591 -0.89145309 9.75
-1.8463053 -0.63097316 -0.60612029 12.81779
-1.7860892 1.9525545 -0.60052091 15.724234
-1.9583 2.0045116 -0.75079846 11.75
-1.8372996 -0.63922411 -0.1687389 20.259941
-1.7413235 1.9444183 -0.13751243 21.11079
-1.9903399 2.0012934 -0.29664761 18.5
-1.7997636 -0.65381932 0.15354033 25.011618
-1.7572544 1.943373 0.22193062 25.354488
-1.9797785 2.011091 0.34567994 27.75
-1.7381486 1.9408164 0.563178 29.344158
-1.9662714 2.0108755 0.51337081 30.333334
-1.7960705 -0.67711854 0.98546427 31.005501
-1.7588555 1.9227701 0.92984033 30.021563
-1.8807952 1.5401696 1.3433497 30.176001
-1.8935642 1.8756611 1.3334683 30.58625
-1.4093364 -0.65458018 -0.90482271 5.7555552
-1.4406093 -0.20316285 -1.0598472 6.2678571
-1.3756551 0.32473853 -1.0646065 2.75
-1.375129 0.61363125 -1.0532252 3.5583334
-1.4106805 1.0343456 -1.0438907 7.3214288
-1.3680646 1.4792861 -1.0397421 3.3333333
-1.3837062 1.8446459 -0.95967174 10.150867
-1.4041419 -0.69945133 -0.64399791 9.8335104
-1.3929576 1.8904788 -0.64135766 14.345319
-1.3761081 -0.70919341 -0.12089814 20.329815
-1.3988192 1.8824923 -0.16645692 20.885433
-1.3974096 -0.71494859 0.20069334 26.739105
-1.418836 1.9004322 0.2617594 26.432215
-1.3509016 -0.73306823 0.47514036 30.663265
-1.3851883 1.8969272 0.5582875 29.365036
-1.300822 4.4618602 0.70283228 25.171
-1.3955892 1.8788891 0.92693913 30.419468
-1.4603052 1.8662592 1.253821 31.115168
-1.1113087 -0.62010044 -0.93542778 3.8428571
-1.0271769 -0.21655366 -1.0589106 5.3333335
-0.96244895 0.33954975 -1.0490714 5.25
-0.97107309 0.74603695 -1.0612079 2.5
-0.93561411 0.98785925 -1.0464313 6.0833335
-0.96160066 1.5083745 -1.0478277 2.2592592
-0.99105233 1.8199692 -0.92150217 8.6182127
-1.0145935 -0.76845276 -0.58217657 6.1341634
-1.0278225 1.8257843 -0.62702519 13.285357
-0.98123634 -0.75873733 -0.20352527 17.186771
-0.96828794 1.8148872 -0.20708267 19.976748
-0.89093608 -0.8038432 0.12533268 27.444445
-1.0540096 -0.77828664 0.154953 26.688889
-1.0148497 1.8190476 0.23220032 26.445499
-1.0473996 1.8258663 0.50304359 30.062901
-0.80877846 1.2239031 1.3367314 31.176001
-0.68108308 -0.49407011 -1.0603637 4.5
-0.5582847 -0.1753473 -1.0614452 1.5535715
-0.45729089 0.2218519 -1.0453365 3.5
-0.64246869 0.77142507 -1.0487255 5.5
-0.55989897 0.9289887 -1.0490167 5.3000002
-0.65599 1.5475483 -1.0462216 4.2874999
-0.64530206 1.7704154 -0.92618179 5.4650106
-0.56929845 -0.62732488 -0.55280375 6.9429183
-0.46307868 -0.012285199 -0.42286056 8
-0.53996927 0.22634673 -0.55303967 3.4322917
-0.63026983 1.6949623 -0.57092267 12.043143
-0.60364896 -0.63130927 -0.17165701 18.465517
-0.58334196 1.7109133 -0.2451455 17.7778
-0.61748689 -0.63790983 0.20992045 27.49889
-0.54846495 1.7267101 0.20019783 27.035992
-0.55849636 -0.65636218 0.55033404 30.08889
-0.7104969 1.756314 0.48315263 30.666668
-0.57162988 -0.60094941 1.2861485 29.503
-0.77162629 1.4905367 1.3538476 30.675125
-0.16981855 -0.85555625 -1.1046548 21
-0.20761877 -0.51919234 -1.0651187 5.8333335
-0.27796397 -0.30458614 -1.0629756 5.7166667
-0.21459205 0.63953376 -1.0467762 3.9166667
-0.19655319 0.87392914 -1.0439702 6.3249998
-0.20351633 1.4675251 -0.92719537 4.6735911
-0.3970544 1.7446439 -0.93891555 2.25
-0.15993549 -0.9317472 -0.55713654 22
-0.22189081 -0.68479961 -0.56180751 6.5439353
-0.26864335 -0.0070875022 -0.50609076 5.75
-0.16844071 0.066278532 -0.55786717 4.3993506
-0.27418128 1.4812015 -0.58566898 11.429358
-0.39527875 1.7407322 -0.60455102 9
-0.16529778 -0.9373014 -0.013937826 23
-0.25614545 -0.68428117 -0.203504 17.657679
-0.28594831 1.47685 -0.18495256 19.395521
-0.39493477 1.728994 -0.18741865 18.5
-0.2247902 -0.69747895 0.1847319 26.944941
-0.27768728 1.4717631 0.20708664 26.582184
-0.3894445 1.714713 0.092892222 25.277779
-0.10480591 -0.88037527 0.53065908 26.818182
-0.14286575 -0.7211253 0.55184186 28.310093
-0.23775755 1.4513824 0.55246639 29.105146
-0.17096408 -0.94922996 1.0782882 25
-0.16721779 -0.73440045 0.92634517 29.752874
-0.14206047 1.4183621 0.93028939 30.043625
-0.16369613 -0.74200511 1.2922733 28.003
-0.11201597 1.3928765 1.2207223 31.1745
0.19030814 1.4239709 -3.2855532 17
0.21450889 1.4946375 -2.7309172 18
0.21855843 1.502507 -2.1761737 19
0.2851699 1.4649121 -1.6238848 20
0.21687469 -0.958543 -0.89258313 6.2487183
0.25308448 -0.5477587 -1.0778247 3.5625
0.20969266 -0.3115871 -1.0739881 5.6500001
0.18959971 0.71596503 -1.0501599 4.6190476
0.11932977 0.89223665 -1.04804 7.75
0.26003709 1.3986869 -0.92652267 3.6955724
0.114098 -0.93555009 -0.59599274 8.6229973
0.061558042 -0.75863874 -0.5920378 5.9505348
0.040366173 0.24739689 -0.56064993 3.9930556
0.30245462 1.4103731 -0.57382697 12.436124
0.15213102 -0.94918078 -0.16278407 18.594757
0.047132738 -0.74929029 -0.20771541 17.915812
0.013558405 0.3136428 -0.35789415 10.833333
0.26265231 1.4018452 -0.16897112 20.062054
0.13857615 -0.95918828 0.17966983 26.54562
0.055301849 -0.74737686 0.18527576 26.233288
0.26558492 1.3936855 0.18716055 25.688057
0.10643671 -0.97058326 0.55596429 28.361612
0.076089039 -0.77717501 0.55669153 29.375
0.24381499 1.3770964 0.56520861 28.512499
0.091025963 -0.96496904 0.89966112 29.888037
0.24869603 1.3736804 0.94348085 29.834167
0.05430783 -0.97704703 1.2617304 28
0.35012439 1.0127788 1.3418833 31.175751
0.36009151 1.2154505 1.3508354 31.174999
0.63514733 -1.015735 -0.92227483 5.6657739
0.68197721 -0.59500569 -1.0953016 6.5
0.76779389 -0.35264876 -1.0904762 6
0.47784704 0.3202019 -1.0669039 0.5
0.62144947 0.6631884 -1.0605909 6.9666672
0.60174221 0.8664096 -1.0567286 8.5
0.56079286 1.5423223 -0.94767666 4.83812
0.44712102 1.6023031 -1.0128073 7
0.57472318 -1.0391313 -0.59180242 5.1271572
0.52304602 -0.084142491 -0.53906929 4.0020409
0.47460404 0.12787873 -0.54231828 5.1791668
0.5184679 1.5170926 -0.61313516 9.6128225
0.43004614 1.6053628 -0.60191685 17.5
0.59231842 -1.0533285 -0.17280062 18.783463
0.47407493 -0.11447845 -0.35683867 10.25
0.48741153 0.23465672 -0.36100501 10.75
0.51122957 1.5182655 -0.1948332 19.039207
0.55847901 -1.0538198 0.16852461 27.500654
0.51110291 1.5000024 0.18419291 26.371111
0.59745347 -1.0838332 0.57941008 29.366667
0.4916791 1.5079759 0.55627817 28.215702
0.50922203 -1.0763129 0.85611451 30.666666
0.48743641 1.5008953 0.95803428 29.578947
0.68037677 -1.1090773 1.2259622 31.004
0.59423459 1.4544673 1.2850271 30.585354
1.0379918 -1.079504 -0.94383651 4.6237373
1.082918 -0.66593039 -1.0991424 4
1.0189862 0.63855189 -1.0668122 7.8666668
1.0351182 1.477545 -0.94475538 3.7123108
0.99126554 -1.1071731 -0.57035261 7.3077583
1.0437011 -0.1400494 -0.55060428 4.665441
1.1039561 0.056952201 -0.53811121 4.7972589
1.0244699 1.4912479 -0.61349112 10.721993
0.97042555 -1.1157398 -0.20555732 18.047279
1.0017717 -0.2137249 -0.37145802 10.5
1.0948508 0.11052307 -0.34222418 11.166667
0.99304909 1.4875032 -0.20357457 19.624994
0.96818972 -1.1250361 0.15105098 26.400826
0.99271411 1.4746933 0.16504931 25.726286
0.9098227 -1.1390477 0.56309766 28.982634
0.96545225 1.45502 0.52038431 27.847221
0.88086659 -1.1558912 0.88002348 30.459709
0.90406746 1.4703979 0.97303468 29.666666
0.83818114 4.1314535 0.81574804 26.17
1.1624281 1.4213735 1.2207882 31
1.391181 -1.129625 -0.96379936 2.8208792
1.3799263 -0.60963094 -1.1004162 4.3333335
1.2006326 -0.39630923 -1.0970533 3
1.4153638 0.25261506 -1.0821872 2
1.2621546 0.67851281 -1.0700163 6.4583335
1.4885075 1.0867803 -1.0799506 0.25
1.4088792 1.4269927 -0.96559364 4.558207
1.5551229 -1.2164474 -0.54774278 12.013888
1.3812498 -1.1741002 -0.5825634 9.1201649
1.3903854 1.4299984 -0.61395162 11.047076
1.4913858 -1.2069331 -0.17801662 19.501514
1.3184826 -1.1686293 -0.1933251 17.935661
1.3741211 1.4230831 -0.18830988 19.91222
1.471351 -1.2134345 0.19317299 26.863676
1.3081897 -1.1738012 0.18265705 27.907787
1.4060304 1.4122589 0.20810728 26.280989
1.3313396 -1.2166805 0.51927638 27.881952
1.2925104 -1.1813872 0.56547797 27.75
1.337136 1.409439 0.56807059 28.514738
1.4363228 -1.2340666 0.94541705 28.768967
1.3321658 1.4018825 0.98794365 29.884312
1.5277096 -1.0683498 1.2922461 29.670082
1.5198032 -0.71357286 1.3229104 29.002501
1.8072429 -1.2372438 -0.95194614 3.3925428
1.8073055 -0.94583488 -1.107182 4.0500002
1.8152866 -0.67477304 -1.1067114 5.7222219
1.9109352 -0.20711893 -1.1109744 0.5
1.7724429 0.28818464 -1.0911242 4.5
1.7669055 0.59487033 -1.0820329 3.8416667
1.8521861 0.98048371 -1.079295 1.1
1.7947832 1.3536468 -0.96950698 4.661171
1.7737535 -1.2407895 -0.63878155 8.7324667
1.7923589 1.3618007 -0.61261165 11.602106
1.7654163 -1.2456015 -0.20048076 18.526358
1.8172884 1.3502917 -0.19676299 20.095774
1.7921429 -1.2557719 0.1742495 26.863697
1.7978942 1.3483478 0.16805679 25.785341
1.7401592 -1.2675136 0.53083718 28.376328
1.763868 1.3400575 0.56054443 28.575926
1.7691107 -1.2839991 0.88288099 29.7008
1.766415 1.3306615 0.9243235 29.766666
1.6710458 -1.2800272 1.2170645 31.004
1.6313337 0.79839289 1.2835014 31.175501
1.6512004 1.0539333 1.2948269 31.1745
1.7031088 1.3019686 1.3011127 31.1735
2.1826622 -1.3041661 -0.94518268 5.2523475
2.2249825 -0.96616447 -1.1268682 5.458333
2.1738904 -0.66480494 -1.1112268 4.8904767
2.2340763 -0.22820069 -1.1089243 1.75
2.2145233 0.22174458 -1.09489 3.5250001
2.2615685 0.5757286 -1.0773647 6.2291665
2.2381351 0.91588265 -1.0862403 2.4126985
2.2089386 1.2910023 -0.96560287 5.440465
2.1820261 -1.307355 -0.63878077 7.6661911
2.175082 -0.2323626 -0.54302716 5.333333
2.1626837 1.1546135 -0.50734377 22
2.2156954 1.2920536 -0.59025753 12.898524
2.1538136 -1.3115169 -0.23347865 18.659296
2.1541276 -0.25765178 -0.38626772 10.5
2.1395221 0.011072449 -0.3979817 10.5
2.3280005 1.1064346 -0.0096031232 23
2.2082803 1.2867754 -0.2015858 19.979994
2.1555188 -1.3154577 0.1728832 26.958565
2.1694264 1.2844388 0.18478964 26.64168
2.164036 -1.3356472 0.51809371 29.90802
2.1634955 1.2769603 0.49661645 28.473114
2.2726614 -1.3682528 0.89119053 30.336668
2.170691 1.2639419 0.96819085 29.952444
2.2273238 -1.257338 1.2484273 30.5035
2.3229477 1.1391538 1.2793767 31.17425
2.5585127 -1.3666228 -0.99770671 4.5685987
2.5619311 -0.94341451 -1.1272566 5.0277777
2.5597873 -0.60637134 -1.1165819 3.4166667
2.5708325 -0.24191736 -1.1101376 4.25
2.6506419 0.16287205 -1.0999868 3.0420635
2.643667 0.59348744 -1.093318 3.632143
2.6379931 1.1113631 -1.0207162 8.5642862
2.6059229 1.2336664 -0.97796029 4.5800862
2.583976 -1.3781018 -0.59840375 10.988668
2.7678859 1.1280042 -0.56386566 18.25
2.5647342 1.2368129 -0.62021238 12.336429
2.5483711 -1.3737028 -0.22445033 18.509424
2.7649012 1.1936637 -0.18914761 20.093138
2.5648727 1.2278486 -0.23203908 19.360237
2.5494792 -1.3861793 0.21942919 26.899048
2.7509573 1.1904954 0.22606891 26.196428
2.5486503 1.2264217 0.18568924 26.475622
2.5428088 -1.3945665 0.51220477 28.66761
2.6834145 1.1649026 0.53742033 28.142857
2.5143197 1.2161437 0.54595435 29.25
2.5095446 -1.4051778 0.85015976 30.75
2.6513944 1.1120088 0.97566688 27.324835
2.4656081 1.2114961 1.0294816 30.555555
3.0514178 1.0611203 -1.4595093 20
2.9889627 -1.4334028 -0.99541867 4.9235029
2.9363322 -0.96608239 -1.1301843 5.6011906
2.978425 -0.60714537 -1.1193985 3.75
2.9640992 -0.14822067 -1.1127466 4.2380953
3.0331845 0.2202816 -1.1038876 5.2678571
3.0271759 0.56800026 -1.09825 5.6809525
3.012311 1.1400088 -0.99918395 5.9223685
2.8514888 1.2081785 -0.9280594 10.5
2.9484663 -1.4381126 -0.6349746 11.008718
2.9980299 1.1644018 -0.6007486 13.450665
2.8396482 1.2064458 -0.61899441 14.5
2.9652007 -1.4448323 -0.21542169 19.192179
2.9718719 1.1502223 -0.21037695 20.105442
2.8109422 1.2013587 -0.28518057 19
2.9680054 -1.4536927 0.19795704 26.508493
3.0011795 1.1466796 0.19971113 26.794228
2.9225235 -1.453263 0.47700134 29.335632
2.9443936 1.1343261 0.5363338 28.766665
3.0344546 1.1194458 0.93821412 30.323809
3.0589716 -1.3199166 1.2864972 30.004
3.0405428 -0.9848147 1.2964545 30.002876
3.383235 -1.5024114 -0.99180454 5.7254291
3.3346066 -0.98821789 -1.1321298 5.4880953
3.4046924 -0.59660566 -1.12024 5.4666662
3.3902087 -0.16280119 -1.1107904 4.5833335
3.4338472 0.21317551 -1.1092536 6.2876983
3.4518168 0.57215381 -1.0980022 5.4435606
3.374742 1.0884103 -0.99046326 7.2784252
3.3755405 -1.5096779 -0.60868883 12.07614
3.346514 -0.55223292 -0.55520189 5.2325759
3.3696947 -0.27383703 -0.53560412 6.0555553
3.38867 1.0982544 -0.6122812 14.116235
3.3531811 -1.510753 -0.219124 19.5273
3.3091288 -0.60021901 -0.38694823 11
3.3902009 1.0881954 -0.22082368 20.123516
3.3734152 -1.5224229 0.20789927 26.312933
3.4046607 1.0796771 0.20377685 26.370554
3.3533063 -1.475141 0.51695228 29.964739
3.4044013 1.0726155 0.51524597 29.115211
3.5673206 -1.438539 0.84710461 31.004999
3.370466 1.0408264 0.95213532 29.497166
3.4180138 -1.4283543 1.2430072 31.004
3.5345466 -1.1415628 1.2020222 26.009001
3.448669 -0.61859971 1.2214017 26.008249
3.4082739 -0.08941292 1.2384588 26.0075
3.4122834 0.25287461 1.2478471 26.007
3.2260492 0.97894406 1.231564 28.1745
3.9696236 -1.6092964 -0.96578425 6.1997356
3.7641652 -1.5345603 -1.0217867 7.9983988
3.7529678 -1.0072774 -1.1401517 7.3142858
3.8090096 -0.61141241 -1.1228223 7.5999999
3.8275735 -0.21211664 -1.1151785 7.5999999
3.8164465 0.21187118 -1.1129525 7.8599997
3.839602 0.56860292 -1.1000776 6.9916668
3.7797885 1.0269922 -1.0127779 6.8843207
3.9677651 -1.6134129 -0.57277721 14.415072
3.7322156 -1.5696913 -0.6136238 12.454739
3.9758544 -0.60570806 -0.40815058 10
3.9183195 -0.37147659 -0.64745462 3.8222225
3.7960851 1.0298226 -0.63044083 13.72072
3.9369657 -1.6170684 -0.1480151 21.4375
3.7184477 -1.5743537 -0.23271339 19.624935
3.9412799 -0.63284487 -0.39556688 10.75
3.8024366 1.0194522 -0.24746616 19.650049
3.9298289 -1.6186361 0.21574137 27.07963
3.6908011 -1.5764374 0.1839647 26.429455
3.7981024 1.0118028 0.17262088 26.151781
3.9465821 -1.6219501 0.57531452 28.634876
3.8001995 -1.5174543 0.55874062 29.366314
3.7704933 1.0063838 0.53631049 28.953312
3.9751227 -1.6422811 0.88178337 29.5
3.840641 -1.5073118 0.88312435 29.39097
3.8186505 0.97595888 0.89322823 29.435734
3.8359532 0.93369126 1.239428 30.17425
4.166234 -1.634396 -0.98706496 7.8522153
4.1589918 -1.4170985 -1.110886 9.3181057
4.1545386 -1.0427687 -1.1413735 6.5322752
4.1920061 -0.63163972 -1.1277142 7.8333335
4.2208571 -0.2251322 -1.123921 7.2357144
4.2490892 0.1620723 -1.1187444 7.8916664
4.2029257 0.55883032 -1.102633 8.6111116
4.214376 0.95788515 -0.99606824 7.7972035
4.2030401 -1.6514753 -0.61472815 14.115259
4.0138135 -0.5835802 -0.53876239 5.2954545
4.2267728 0.95716643 -0.63460177 13.797024
4.169385 -1.6496007 -0.22017635 19.886299
4.211566 0.94968522 -0.2575092 19.732313
4.1801982 -1.6584727 0.16657458 25.938717
4.2010369 0.94121206 0.19820121 26.547998
4.1645484 -1.6563853 0.53266424 28.926249
4.214231 0.92869759 0.58201796 29.227888
4.1288466 -1.6640069 0.95867074 30
4.2729764 0.89512736 0.90225738 29.704
4.1712213 -1.6833791 1.2467033 30.667999
4.1318331 -1.4525673 1.2462504 30.501751
4.1428828 -1.0636414 1.2856418 31.001251
4.0951333 0.87734085 1.218281 28.174999
4.6456227 -1.6784787 -0.98506922 9.7506094
4.6192613 -1.3947803 -1.1411604 10.775
4.5610914 -1.0613432 -1.1452059 8.0370369
4.5539141 -0.66936141 -1.1298317 9.333333
4.5891361 -0.23331648 -1.1275072 8.208334
4.623064 0.1406025 -1.124873 7.8229165
4.6412592 0.53007603 -1.1083367 10.194445
4.5791001 0.89745057 -1.0115479 7.3610568
4.646492 -1.6851847 -0.6213457 13.098414
4.6203656 0.8906374 -0.64595062 14.470275
4.6641073 -1.6868383 -0.23546705 19.561531
4.6161442 0.88188183 -0.24471341 20.012815
4.699079 -1.6948081 0.16090053 26.409452
4.6071987 0.84847933 0.2264621 27.074068
4.6470098 -1.7076521 0.55889755 29.860466
4.7614546 0.78958499 0.55462193 29.343201
4.6039319 0.83870387 0.57643229 29.405828
4.6235323 -1.7545043 0.93600804 30.254126
4.5855513 0.84287727 0.94112164 30.274374
4.6706166 3.4802344 0.92278314 26.173
5.0527425 -1.7309489 -0.97359681 8.3959599
5.0451889 -1.371292 -1.1528226 9.5059528
5.0127611 -1.0452652 -1.1420031 6.75
4.9539518 -0.71979666 -1.1315863 10.328571
4.9716358 -0.23261507 -1.1310804 9.9047623
4.9616189 0.13149405 -1.1253724 9.0733337
5.0674386 0.61197007 -1.0687137 6.8277774
4.961453 0.83792114 -0.99158698 9.6518393
5.0026169 -1.7237418 -0.57362884 12.206584
5.1396451 -0.85750282 -0.45101669 10.5
5.1617579 -0.54173982 -0.56835073 7.2232141
5.1525917 0.79406029 -0.66569829 10.568376
4.9733043 0.83170015 -0.63713044 15.279837
4.9796295 -1.7229061 -0.20203826 20.311165
5.1453991 0.78825223 -0.25495791 19.375
4.9514127 0.8283391 -0.26942891 19.952942
4.97054 -1.7249618 0.19858271 25.980581
5.0520492 0.78022325 0.1874131 26.553478
4.9119163 0.81671184 0.14596072 25.64296
4.9642448 -1.7405436 0.55478251 28.926086
5.040844 0.76080453 0.54975671 29.47426
4.8079524 0.81249088 0.53766865 30.142857
4.9784355 -1.8107405 0.88610643 30.210209
5.0461736 0.76179856 0.85599333 30.390999
5.0411282 0.80030507 0.96166843 31.0945
5.1192718 -1.713998 1.2116076 31.004
5.0802402 -1.4591283 1.2223324 31.003
5.1064129 0.52689207 1.2307516 29.17425
5.3749552 -1.437031 -1.2188059 12
5.3923087 -1.7775936 -0.97787786 8.7953758
5.3695698 -1.3398663 -1.1563474 8.4775133
5.4333978 -1.0655969 -1.1444846 9.666667
5.3851299 -0.62824434 -1.1323538 9.5555553
5.3886776 -0.27166164 -1.1336091 9.0266666
5.3634295 0.14344655 -1.1308661 10.115151
5.4006968 0.73577976 -1.0157536 9.5173187
5.214251 0.81263262 -0.99427766 15
5.38871 -1.7793299 -0.56612372 12.443239
5.217454 -0.71981657 -0.61042988 4.6916666
5.4211297 0.75483841 -0.64842755 14.443389
5.4142108 -1.7738007 -0.24636096 20.382124
5.4321456 0.74387389 -0.23851001 20.55303
5.406971 -1.7732204 0.18188608 26.429712
5.4599533 0.72399032 0.20723861 26.314926
5.3925486 -1.789187 0.54066193 28.709095
5.4400692 0.71977383 0.58744532 29.23978
5.3400316 -1.8621455 0.8751533 30.466198
5.5751576 -1.4353273 1.165934 26.014999
5.5554514 -1.1151383 1.1754249 26.0145
5.4902673 -0.6297003 1.1933256 26.01375
5.4373922 0.69761908 1.003577 30.2384
5.466248 0.017458338 1.2135826 26.012751
5.3590975 0.5115276 1.2275057 28.093124
5.727582 -1.3608474 -1.2209208 11
5.8343625 -1.8375208 -0.97535187 10.242424
5.7900653 -1.36163 -1.1649929 10.06111
5.8435669 -1.0598086 -1.145844 10.190476
5.8026662 -0.59567636 -1.1388389 10.583334
5.8308153 -0.16287854 -1.1351287 9.7510824
5.7710896 0.12979615 -1.1394435 9.9285717
5.7956061 0.66103226 -1.0382382 9.2872839
5.7797589 -1.8491277 -0.59113663 13.617145
5.8160954 0.68767834 -0.63017744 15.268067
5.8175254 -1.8389564 -0.22653498 20.332081
5.8115535 0.67919827 -0.25074509 20.505617
5.7957082 -1.8336202 0.1550151 25.409517
5.8172455 0.6434291 0.17354017 25.609236
5.8220787 -1.8421018 0.52048379 28.2173
5.7855382 0.63406581 0.56402975 28.939541
5.7755766 -1.92698 0.86487854 30.581749
5.8158622 0.63155544 0.92002034 30.384514
5.7893267 0.50576919 1.2978263 31.174
5.6375675 1.7467338 1.2574172 30.17
6.2087269 -1.4040678 -1.2253681 9.25
6.1709452 -1.8882977 -0.98352271 8.6364307
6.2821159 -1.4335207 -1.165953 9.439682
6.2553282 -0.95446318 -1.1500826 10.083333
6.2428088 -0.54284114 -1.1480248 10.128572
6.2574153 -0.13933927 -1.1443809 9.125
6.1887894 0.21671195 -1.1388185 9.8055553
6.2144933 0.59385943 -1.0095134 11.335441
6.158062 -1.9111552 -0.57609123 13.895542
6.3351779 -1.0057515 -0.5876928 6.2061009
6.2393312 0.61704379 -0.65420616 15.822303
6.1922088 -1.9002906 -0.25897723 18.602543
6.2246165 0.60444897 -0.19419053 21.179934
6.1833029 -1.8942597 0.17893563 27.206217
6.213048 0.57926267 0.1666587 25.695936
6.3139486 -2.0200512 0.73614782 29.581249
6.1624894 -1.9097506 0.55246598 28.549526
6.2093735 0.56966275 0.56322265 28.472054
6.1395144 -1.9890039 0.94136363 30.206625
6.2410178 0.56367326 0.91690636 30.25
6.301333 -2.0075917 1.2460878 31
6.2382298 -1.9131023 1.2296189 31.040501
6.3697114 0.26117814 1.2203956 31.173874
6.6160178 -1.7574267 -1.2608495 14.125
6.7921062 -1.3175817 -1.2291944 6.5
6.5467801 -2.0018275 -1.1247796 16
6.5875206 -1.8869697 -1.0074931 10.516532
6.6176057 -1.4020463 -1.1718096 7.8683038
6.5236416 -1.0110431 -1.1491834 10.125
6.5459709 -0.61683851 -1.1476878 8.3611116
6.6569648 -0.19538835 -1.1500025 7.59375
6.5421138 0.17755145 -1.1455132 6.8633332
6.5795679 0.55898929 -1.0274417 8.7921791
6.5939655 -1.9081402 -0.62465334 14.254312
6.4403219 -0.7368868 -0.53746694 7.0792775
6.6253586 0.54800659 -0.6582461 14.897512
6.6065841 -1.907774 -0.23602748 20.376293
6.7928205 0.39830798 -0.084297709 24.167
6.6012001 0.544402 -0.26438901 20.345926
6.6182399 -1.9077388 0.15652409 26.09112
6.5726266 0.53630537 0.16156693 26.361254
6.5662832 -2.0302806 0.69051278 28.041
6.6428242 -1.9033831 0.54759139 28.157053
6.5862427 0.54067761 0.59301996 28.84494
6.595891 -2.0562859 0.95528907 30.022957
6.6848459 -1.9007337 0.96765059 30.076586
6.6244388 0.52939498 0.93498909 30.076696
6.4305525 -1.6869044 1.2526562 31
6.5327592 -1.4002398 1.2590402 31
6.6325331 -1.0549315 1.265619 31
6.7490997 -0.58362752 1.2765396 31
6.792727 -0.35903376 1.281616 31
6.5224991 0.14436619 1.2174076 30.174126
6.5546169 0.54461396 1.2392069 31.046249
7.1807995 -1.6582141 -1.23637 4
7.1890359 -0.90880626 -1.2188622 4.5
7.0150776 -0.21559627 -1.2041957 7.1500001
7.0345774 0.37567604 -1.497396 14
7.0485129 0.49867362 -1.5019715 14
6.9935598 -1.858059 -1.0202621 11.391005
7.0128431 -1.4118207 -1.1681982 11.351515
6.9914865 -0.99557674 -1.1542412 11.4375
7.0021434 -0.61599702 -1.1471338 11.4375
7.039866 -0.21011733 -1.14481 10.611111
7.0143132 0.25866789 -1.006116 10.702988
6.9672699 0.48642296 -0.98448873 12.852164
7.000474 -1.9010277 -0.61797351 14.957705
7.0347795 0.27379978 -0.62791526 15.194444
6.9877424 0.47791436 -0.62709713 16.406879
7.0235357 -1.907402 -0.25278232 20.101547
7.0367665 0.26954114 -0.23802672 21.098669
6.9742489 0.47189036 -0.22677551 21.212502
7.0123663 -1.9162985 0.13855621 26.395773
7.0476418 0.2646068 0.17114325 26.492374
6.971087 0.47518259 0.17536195 25.557638
6.9999022 -1.919847 0.56370729 28.669933
7.0283899 0.2704832 0.55378813 27.859716
7.003736 0.46243143 0.54640305 27.694149
7.0509963 -2.0562398 1.0343239 26
7.0007424 -1.9163258 0.94049281 29.815924
7.0456762 0.28183594 0.95715743 30.082352
7.0031996 0.45705429 0.92768633 29.973333
6.9525471 -1.7558565 1.2305399 31
7.1329045 -1.2216049 1.2407628 31
7.1927457 -1.0336474 1.2456062 31
6.825716 -0.18653442 1.2866223 31
6.8804951 0.19896534 1.29707 31
6.9895215 0.4288255 1.238826 31
7.2080417 -2.125351 -3.0921981 15
7.2485743 -2.0876417 -2.7033446 16
7.4986839 0.18404156 -2.7124121 16
7.2178111 -2.0505419 -2.3309999 17
7.4166408 0.20353431 -2.3415186 17
7.2497654 -2.0593781 -1.9524149 18
7.5684872 0.15616938 -1.9434621 18
7.2379646 -2.0896089 -1.3924572 19.5
7.523005 -1.7109269 -1.2412359 1
7.3550177 -1.3986588 -1.2338729 2.4000001
7.3544035 -0.45876947 -1.2113886 4.5
7.3960905 -0.18956105 -1.2059782 5.1999998
7.380218 -2.1248605 -0.92239577 9.6580887
7.3015389 -1.9139539 -0.98644555 7.25
7.339119 -1.4483727 -1.168095 10.469048
7.3439155 -1.0584595 -1.1583902 10.6
7.3569398 -0.63716257 -1.1553355 11.566667
7.4094248 -0.24877416 -1.1461445 9.8583336
7.4142489 0.18706462 -1.0143107 9.9637613
7.4397311 -2.1544068 -0.61679584 13.552356
7.3374991 -1.953651 -0.61017799 15.25188
7.2347164 -1.2175083 -0.47077447 10.5
7.3108277 -1.0372031 -0.58183813 6.4828749
7.4565687 0.18679579 -0.63838094 15.643094
7.4229579 -2.1481316 -0.240971 20.558971
7.3482223 -1.95921 -0.21782187 21.223999
7.431551 0.17919062 -0.2390735 20.978649
7.4285593 -2.1410642 0.18712716 26.851458
7.3183446 -1.96216 0.17222406 26.491972
7.4607544 0.17188165 0.16785906 25.71501
7.4036264 -2.133472 0.60865676 28.792728
7.2700243 -1.9601519 0.52547967 28.621922
7.4482031 0.17330936 0.54307544 28.420439
7.2511115 -2.1546438 0.97488362 27.667999
7.3170543 -1.963215 0.99672318 29.809998
7.4519024 0.17998683 0.99525994 29.607693
7.461153 -1.8463428 1.2448337 30.6
7.5056701 -1.4052792 1.2547518 30
7.4130988 -0.97768056 1.2546655 30.5
7.3303914 -0.41004646 1.2589265 31
7.4958777 -0.072002217 1.2342914 31.115915
7.3937688 0.15087363 1.2369549 30.3915
7.6210008 -2.1910584 -1.2132598 0
7.80406 -1.7209383 -1.2024771 6.5
7.7244759 -0.53109443 -1.2177664 1.4444444
7.8743939 -0.33593994 -1.2126584 1.2
7.6014037 0.16616671 -1.5622364 19
7.8378739 -2.2350206 -1.0393102 7.1084714
7.718359 -1.8248402 -1.1705261 11.869047
7.7806602 -1.3980672 -1.1704739 11.537037
7.7890453 -0.95601666 -1.1577142 11.9
7.7871928 -0.63922125 -1.1524146 11.766666
7.8306108 -0.20849623 -1.1481994 11.479167
7.7345695 0.17818178 -0.99877113 11.240696
7.8500552 -2.2565427 -0.65343028 12.260304
7.7493162 0.19243902 -0.65354377 15.136478
7.9013734 -2.2717214 -0.22872052 20.992607
7.7390475 0.18236321 -0.22982787 21.060986
7.8308406 -2.277775 0.14082091 26.97547
7.7885189 0.20791899 0.19018885 26.015423
7.867301 -2.29287 0.58204997 29.338644
7.7767172 0.18325396 0.594603 28.584177
7.7155666 -2.1821237 1.0605401 28.004501
7.7580972 0.18134943 0.96704185 29.828188
7.8183789 -2.1015918 1.2106068 30.083
7.9138956 -1.9099976 1.2275521 30.333334
7.7081785 -1.306425 1.2488098 31
7.7177382 -0.94581342 1.2581656 30.5
7.8090949 -0.55597281 1.2657186 30.5
7.8814058 -0.15783106 1.2737079 30.5
7.8530684 0.096731178 1.2679728 30.5
8.2312918 0.19263129 -1.973604 17
8.265851 -2.3010347 -1.2289772 4
8.1955986 -1.8090121 -1.2073592 8.9333334
8.2870026 -1.472234 -1.205988 5.75
8.0063143 -0.36049378 -1.2158997 0
8.2116289 0.19095285 -1.5861295 18
8.2117052 -2.2849028 -1.0020466 7.7470746
8.1861067 -1.7511448 -1.1825629 11.583333
8.1629057 -1.4245398 -1.1803496 10.027778
8.1722383 -0.97702539 -1.1770042 6.6666665
8.2050209 -0.61587042 -1.1648854 11.59375
8.2480364 -0.22522335 -1.1578398 11.774074
8.2028742 0.2141553 -1.0371032 9.1989031
8.2343187 -2.3165917 -0.70672905 12.945394
8.2451496 -1.2833602 -0.63133317 7.1500001
8.3434439 -1.0673869 -0.65580821 5.7380953
8.2237864 0.26351643 -0.66248131 12.454398
8.2209063 -2.326164 -0.21310318 21.26996
8.2665663 0.26559877 -0.24056476 20.34164
8.3377094 -2.4029026 0.084691934 30.025333
8.1820679 -2.3490117 0.19887093 27.718988
8.1994143 0.26812878 0.15232348 27.224812
8.1760569 -2.3617783 0.51496959 29.999022
8.2136583 0.24052538 0.56936073 29.017855
8.3876333 -2.4449227 1.0729506 27.001751
8.382638 -2.1597402 1.1571337 27
8.3833075 -1.7925786 1.1670725 27
8.3924265 -1.2530929 1.1822125 27
8.3973341 -1.0575386 1.1880147 27
8.1727791 0.20255874 1.0024821 29.196428
8.0098934 -2.0552235 1.2465813 31
8.0621586 -1.7026207 1.2356734 30.5
8.1283979 -1.394522 1.2427814 30.666666
8.2309961 -1.0137062 1.2478942 30.666666
8.2736959 -0.59242505 1.251043 30.5
8.3436022 -0.20007625 1.2584729 30.5
8.3528128 0.019902114 1.2687148 31
8.6037588 -2.2020168 -1.2183158 7.5
8.5627947 -1.7775111 -1.2105066 6.5999999
8.5479898 -1.546559 -1.2096012 0.60000002
8.7627573 -2.4059443 -0.9202109 8.833333
8.6040726 -2.3513706 -1.0088384 8.920805
8.6842813 -1.8601991 -1.1771094 16
8.5506592 -1.4001623 -1.1861509 10.714286
8.5730438 -0.96579665 -1.1773293 9.416667
8.6044884 -0.58352989 -1.1705037 8.6967688
8.5947561 -0.21724926 -1.1663895 9.333333
8.5783758 0.20007396 -1.0511323 7.958189
8.7412834 -2.4011362 -0.67544264 12.9625
8.6169958 -2.3800011 -0.70053762 12.889467
8.4249592 -1.0877695 -0.76349008 1
8.616147 0.1977089 -0.70534068 14.934162
8.7298346 -2.410008 -0.20428152 21.614416
8.6210575 -2.3830857 -0.19789833 21.656401
8.5905886 0.18750845 -0.19033219 21.941298
8.6299381 -2.4236801 0.19618101 28.018555
8.5853834 -2.394331 0.12098994 26.197319
8.5907755 0.20852938 0.20002343 27.573753
8.6202459 -2.4277279 0.53523415 29.626188
8.5935526 0.18608598 0.56050736 29.167839
8.668313 -2.4266658 0.99504381 29.019201
8.4066362 -0.71364325 1.1988319 27
8.5660801 0.14648916 0.93166298 29.77286
8.6021261 -2.213167 1.2321008 29.666666
8.6351118 -1.7732139 1.2358469 29.666666
8.7502823 -1.4131333 1.2419893 29.5
8.4219952 -0.56407624 1.2336321 29
8.4699001 -0.19082698 1.2399943 31.087124
8.512146 0.048806965 1.2459253 31.08675
8.9999952 -2.419771 -1.2273101 3.6666667
9.0105934 -2.1916921 -1.2344837 12.333333
8.9706621 -1.7900016 -1.21428 8.5249996
8.8490105 -1.498897 -1.2043417 6
9.0447311 0.046295565 -1.5200661 18
9.0452499 -2.4445906 -0.98356485 10.494073
8.9098911 -2.3427904 -1.0870159 9.3159723
8.9491177 -1.7651876 -1.19042 14
9.0196152 -1.3783154 -1.1858506 13.75
8.9907541 -1.0256689 -1.1803313 13.571428
9.036788 -0.56877285 -1.1761922 10.711111
9.0519238 -0.22358218 -1.1638535 10.270833
8.9795332 0.13496767 -1.0195955 11.64035
9.0628433 -2.4560373 -0.65805715 15.198325
9.005619 0.12836152 -0.66596252 16.492945
9.048914 -2.4612987 -0.24630424 21.085249
8.9882088 0.12728997 -0.22027738 21.812904
9.0340137 -2.4662905 0.18548429 27.1071
8.983634 -0.023435114 0.13971722 22.5
9.0012312 0.14437449 0.19796735 27.195847
9.0244694 -2.4611692 0.57166541 28.632607
9.0376692 -0.060257982 0.68869448 24
9.0155764 0.1436677 0.54850727 28.629984
9.048583 -2.4771266 0.97123224 29.417
9.1130638 -2.3049479 1.1998793 29.0835
8.9246979 -0.044606607 1.0692717 25
9.0139809 0.11353441 0.96371466 29.477524
8.9598532 -2.1605501 1.2246013 30.063311
9.0708179 -1.7908826 1.2414407 30.453108
9.0785427 -1.3949646 1.2450864 30.0177
8.8623343 -1.0075521 1.2484204 29.5
8.9636564 -0.57377267 1.25596 29.5
9.0308437 -0.20841503 1.26231 29.5
9.0725336 0.05312895 1.2672392 29.5
9.4562826 -10.06281 -1.9320817 14.5
9.3418016 0.021517757 -1.8603277 17
9.5696125 -9.3789644 -1.2242382 17.5
9.4943743 -2.1166315 -1.2233827 11.05
9.4459562 -1.8451856 -1.217262 6.0619049
9.2957296 -1.529861 -1.2097999 3.9333334
9.4181948 -1.1401993 -1.2023776 3.4916666
9.4709959 -0.67639703 -1.2049531 8
9.2702084 0.019982914 -1.5023483 18
9.4541883 -10.099601 -1.1184444 18.5
9.5185604 -9.6961584 -0.87868297 19.5
9.5574112 -9.4514904 -0.98544115 18.833332
9.4062185 -2.5049398 -1.0105751 8.2635536
9.2727041 -1.8588196 -1.198614 12
9.3541317 -1.4806187 -1.194064 12
9.3875809 -1.0884633 -1.1856365 12
9.4639797 -0.60363072 -1.1874812 7.2107139
9.3849173 -0.23405999 -1.1628397 10.4625
9.3714085 0.082245857 -0.99389875 12.0341
9.4563456 -10.104585 -0.71581495 20.5
9.5206909 -9.7537804 -0.50038815 21.5
9.5840988 -9.3599758 -0.51351905 21.333334
9.4235277 -2.5161974 -0.63845509 15.265203
9.3371468 -1.3616621 -0.63887084 5.395
9.431736 -1.1342136 -0.57965887 6.8928571
9.3703756 -0.046265159 -0.59048218 20.5
9.3827057 0.077986583 -0.6456759 16.82836
9.479908 -10.027788 -0.11520039 23.5
9.5528698 -9.6384144 -0.02331171 24
9.4419317 -2.5299909 -0.26904345 20.881451
9.4306946 -0.085947149 -0.049735907 22
9.3728867 0.059167475 -0.21425535 21.699455
9.5228443 -9.8600969 0.17621358 25
9.386816 -2.5293365 0.17941704 27.558607
9.401454 0.068722993 0.18405184 26.975864
9.5427361 -9.7876101 0.46168241 26.5
9.3994217 -2.5317166 0.56768572 29.327648
9.411334 0.058158461 0.55064261 28.840002
9.388134 -2.5640264 0.99070239 29.793999
9.3847885 0.065007679 0.90675586 28.895576
9.2611637 -1.7763398 1.202633 29.085251
9.3343801 -1.4275236 1.2246937 29.333334
9.3448267 -1.0040272 1.2434113 30
9.3984919 -0.61887854 1.2460515 30.018299
9.3931503 -0.20607634 1.2470683 30.566813
9.4225492 0.051982787 1.2350258 29.864084
9.5027599 1.3335488 1.2635061 30.171499
9.6864128 -10.130716 -1.916456 14.6
9.6647663 -10.119905 -1.4211652 17
9.8603516 -9.0572891 -1.4402727 16
9.7608547 -8.171505 -1.2945547 16
9.9304256 -7.960825 -1.4082175 15
9.8857117 -2.5209904 -1.2406358 11
9.7502108 -2.1882114 -1.2420553 7.9166665
9.7813435 -1.844749 -1.2148278 9.6166668
9.7159157 -1.515529 -1.2058089 9.875
9.7256546 -1.1567068 -1.200784 6.25
9.7804575 -0.67744058 -1.208042 6.7375002
9.6681185 -10.146471 -1.0996617 18.6
9.7257481 -8.4679232 -1.0158535 18
9.8020096 -2.5728083 -1.0667584 8.3835936
9.9561224 -2.3172181 -1.1952339 17
9.9994097 -1.5110208 -1.1980195 16
9.8039637 -0.96284086 -1.1893702 14.166667
9.8465071 -0.68059111 -1.1866215 10.864583
9.8917475 -0.10079443 -1.0614446 11.302631
9.7225332 0.027480781 -1.0349751 10.862889
9.7217321 -10.161559 -0.5119881 21.523809
9.6560154 -8.9394102 -0.5803073 20.833332
9.7392473 -8.4293833 -0.6058175 20.5
9.7854185 -2.5861559 -0.67928988 14.610596
9.8900576 -0.026377827 -0.68022168 16.880009
9.7243967 0.020118572 -0.67538851 17.488243
9.777956 -10.181661 -0.11049142 23.533333
9.6008101 -9.3386164 -0.028143661 24
9.6619015 -8.9701958 -0.068028294 23.799999
9.7480755 -8.4704218 -0.038637772 24
9.7512245 -2.5836463 -0.21297501 21.73233
9.8711414 -0.014115401 -0.26565781 21.008783
9.6935244 0.015973505 -0.24293208 21.855555
9.7563887 -10.198822 0.33571243 25.75
9.6886311 -8.9126911 0.39569613 26.5
9.730278 -8.6640539 0.37695518 26.5
9.7928228 -8.2466993 0.11141761 25
9.7750187 -2.6071568 0.14334469 26.562735
9.8899059 -0.022033086 0.15648161 27.017559
9.7631073 0.024311107 0.19529533 26.746935
9.8197613 -10.232804 0.69102401 27.5
9.6181717 -9.3359365 0.42761403 26.5
9.6898947 -8.962904 0.74952751 28.5
9.7561493 -8.5756187 0.78496146 29
9.8052664 -8.208952 0.42117634 27
9.7993288 -2.6206322 0.58521241 28.527433
9.8459644 -0.032331832 0.51572138 28.555225
9.7221546 0.021930827 0.56166452 28.507303
9.6402817 -9.8103514 0.90002799 28.75
9.6210594 -9.3875666 0.80166358 28.5
9.9215155 -8.8405018 0.98488486 30
9.815877 -8.1808596 0.81069994 29.5
9.7993803 -2.5981052 1.0159873 29.20627
9.7221832 -2.3905871 1.1549877 29
9.7014084 -1.9350805 1.1465788 27
9.7144403 -1.5188851 1.1579375 27
9.7344751 -1.0764446 1.1707191 27
9.7650442 -0.64319664 1.1834755 27
9.8289213 -0.07721217 0.96208054 29.139439
9.6633863 0.027476773 0.97393 28.394585
9.8745632 -2.5539062 1.2147512 29.833334
9.9294977 -2.1718342 1.2197407 29.5
9.8334932 -0.5433414 1.2855148 27
9.7063599 -0.11726863 1.2395511 29
10.144469 -10.215059 -2.2023759 13.25
10.004233 -0.070862696 -2.1433458 16
10.052105 -10.191396 -1.9385096 14.5
10.358161 -2.7201786 -1.7460229 16
10.143366 -0.091610059 -1.7792391 17
10.0677 -10.191229 -1.4234716 17
10.267936 -9.1812563 -1.4512428 16
10.111172 -7.2312889 -1.3985575 14
10.357061 -6.6005664 -1.3743911 13
10.388009 -4.7019477 -1.2433426 9
10.27525 -2.5326879 -1.2478478 9.333333
10.138509 -2.1495869 -1.2332383 7.1734695
10.233616 -1.7755617 -1.2267603 7.5714288
10.216931 -1.2955539 -1.2149574 6.96
10.255858 -0.95538926 -1.2130406 7.5
10.129559 -0.66859728 -1.2125382 5.2777781
10.284149 -0.09728276 -1.4684443 17.25
10.059142 -10.211662 -1.122081 18.5
10.390682 -4.6930923 -1.0110914 11.972221
10.186327 -2.6466932 -1.0128559 10.872113
10.065261 -1.768811 -1.198571 17
10.132465 -1.3813274 -1.0734309 11.666667
10.084521 -0.89146477 -1.19201 14.380952
10.348642 -0.6868223 -1.1973332 11.25
10.17676 -0.082155086 -1.0396383 10.113701
10.059035 -10.261681 -0.57068974 21.25
10.338357 -4.9935532 -0.74927956 16
10.388058 -4.6800008 -0.57104987 17.625
10.21987 -2.670929 -0.64891326 16.724316
10.32049 -1.6059476 -0.47576943 11.5
10.367556 -1.5830915 -0.6008051 6.9074073
10.179564 -0.058613822 -0.63721812 17.746895
10.034045 -10.316376 -0.11887584 23.5
10.365632 -4.9614944 -0.22191682 22.25
10.39119 -4.7235456 -0.18566468 22.666668
10.222024 -2.6770334 -0.23376276 21.671633
10.161684 -0.064532883 -0.22427745 21.962942
10.207645 0.0090787876 -0.052954629 22.046
10.047191 -10.302437 0.28585956 25.5
10.351802 -5.0012822 0.21729118 27.5
10.392926 -4.725656 0.24704666 28.5
10.1643 -2.6770136 0.15814944 25.898588
10.167728 -0.073246583 0.18950945 26.25404
10.048724 -10.320664 0.69323599 27.5
10.362143 -5.0266891 0.47397578 30.5175
10.389428 -4.7455978 0.46983579 31
10.208357 -2.6919115 0.55737966 28.093691
10.176043 -0.085893229 0.58258498 28.023216
10.115034 -9.9723024 0.95323443 29
10.317458 -8.8735752 0.97512621 30
10.075719 -8.0440063 1.0124632 31
10.232523 -2.6927609 0.95591104 28.701426
10.173974 -0.077843495 0.99352914 28.901255
10.078607 -2.5591536 1.2151585 28.5
10.14792 -2.2866893 1.2184806 29.200001
10.20118 -1.845423 1.2228029 29.333334
10.268994 -1.5046622 1.2266711 29.4
10.283613 -1.0689338 1.2305398 30
10.350043 -0.58998209 1.2343599 29.5
10.245798 -0.13578929 1.2818072 26.681999
10.558816 -10.263453 -2.2561991 13
10.568942 -10.263461 -1.9428173 14.5
10.473364 -10.250496 -1.4268799 17
10.623816 -9.2429266 -1.4560317 16
10.473149 -6.0944161 -1.3590336 12
10.549744 -5.6829782 -1.3479847 11
10.416313 -5.5781198 -1.2266283 12
10.456238 -5.0527349 -1.2119589 10.555556
10.622041 -4.677907 -1.3047674 8
10.630984 -4.3032556 -1.2655122 6.6666665
10.531016 -3.8824844 -1.2142121 5.5
10.647716 -3.3492928 -1.2767583 1.9444445
10.674408 -2.9039519 -1.2089537 2.5
10.651291 -2.5545053 -1.2416247 7.3916669
10.47613 -2.1645551 -1.2434697 7.3968253
10.526178 -1.7286314 -1.2245942 7.9571428
10.566551 -1.3303137 -1.2152318 7.9000001
10.655716 -0.97411758 -1.2174579 7.1275511
10.661002 -0.71691549 -1.2139176 4.373333
10.608881 -0.12507819 -1.3764478 14.428572
10.578544 -10.291942 -1.0762537 18.75
10.420656 -5.6498051 -0.93214679 15.166667
10.445202 -5.3110666 -1.0085247 13.638889
10.42883 -4.9927707 -0.99922836 12.925595
10.404805 -4.6523447 -1.0858904 10.975
10.443407 -4.293364 -1.1113839 9.2053566
10.509533 -3.885402 -1.0600317 8.1923075
10.574573 -3.4742453 -1.09561 5.5395608
10.652111 -3.0434785 -1.0623447 7.1186051
10.618719 -2.7283776 -1.0294274 9.505393
10.513881 -1.4108716 -1.1953522 18
10.486447 -0.56691235 -1.1946597 10.273334
10.629622 -0.12123926 -1.0725937 10.076423
10.573004 -10.314319 -0.5740357 21.25
10.420375 -5.6679149 -0.61276412 18.5
10.429077 -5.3222666 -0.59673899 18.246429
10.431985 -4.9621272 -0.64942169 17.083334
10.406287 -4.6759048 -0.66882008 16.3125
10.461064 -4.2054152 -0.76941514 13.714286
10.526677 -3.8229511 -0.75507748 12.588236
10.579396 -3.4601097 -0.67680132 13.597221
10.67829 -2.9670594 -0.60582614 14.397773
10.642235 -2.7353439 -0.64387357 14.744063
10.465141 -1.363278 -0.66303158 4.4078126
10.603361 -0.12460659 -0.64004409 16.914179
10.563906 -10.340517 -0.10639872 23.583332
10.405644 -5.6465678 -0.27858776 22
10.436531 -5.3605523 -0.25619745 22.166666
10.434675 -4.9868121 -0.23572867 22.2395
10.410086 -4.6739039 -0.28872749 21.420454
10.46391 -4.2203336 -0.38323909 19.625
10.532989 -3.8111327 -0.38549927 18.990385
10.598583 -3.4197705 -0.3741858 18.492647
10.688913 -2.9695823 -0.1867287 22.703173
10.656122 -2.7454638 -0.2187113 21.785879
10.60693 -0.14176953 -0.27937815 21.288866
10.566442 -10.361831 0.28134957 25.5
10.432635 -5.6658401 0.12703489 26.299999
10.440792 -5.3265996 0.086135775 26.111111
10.449604 -5.0129066 0.22779134 27.950617
10.418732 -4.6807909 0.20295076 27.946886
10.475018 -4.2309971 0.16296047 28.071428
10.539618 -3.8189261 0.16281325 28.646626
10.598907 -3.4264169 0.14538439 28.671738
10.689482 -2.944658 0.16909233 28.268999
10.632051 -2.7554483 0.18220201 27.007048
10.599516 -0.15216421 0.14293157 26.310562
10.601795 -10.376184 0.69423568 27.533333
10.442992 -5.6423416 0.50092572 30.25
10.43796 -5.4473014 0.40744975 29.555555
10.464195 -5.0470262 0.44598237 30.518002
10.699389 -2.859652 0.61509639 28.980165
10.613127 -2.7579997 0.56374508 28.223625
10.619571 -0.16165783 0.5662207 27.929014
10.651708 -10.014381 0.94547939 29
10.667007 -8.9393139 0.97505563 30
10.545896 -8.0987177 1.0029479 31
10.706437 -2.8147511 1.0526472 29.506001
10.590819 -2.7305598 1.013561 29.443981
10.654713 -2.3999436 1.0950037 28.005499
10.588486 -0.14881839 0.9457075 28.422861
10.461848 -1.3481202 1.229784 28.666666
10.54517 -0.98279995 1.2341309 28.75
10.591927 -0.60131156 1.2404776 29.25
10.537034 -0.22852977 1.2415742 29.25
10.82935 -0.13408238 -1.7660446 15.5
10.937549 -8.7436533 -1.2002691 17
10.972273 -7.4867215 -1.4297967 14
10.90734 -6.7307663 -1.387472 13
10.966007 -6.2129726 -1.3723679 12
11.006372 -5.7745609 -1.355394 11
10.993225 -5.4014907 -1.3398781 10
11.085334 -4.9566455 -1.2790984 9
11.18062 -4.3629413 -1.3186228 5.5
10.962462 -3.8668194 -1.2848687 3.5416665
10.963645 -3.5045197 -1.2791855 0.89999998
11.059331 -2.9751959 -1.2694101 4.760417
10.969897 -2.6257403 -1.2688483 10.958333
10.960913 -2.1983199 -1.2475848 9.2777777
11.029506 -1.7466085 -1.2237393 10.916667
11.052472 -1.3692975 -1.2171059 10.25
11.04463 -1.0110706 -1.2206753 8.3619041
11.095828 -0.57172376 -1.2274097 3.6666667
10.926188 -0.21545854 -1.3142062 14
10.937503 -8.8221798 -1.0441326 18
10.947582 -8.7748613 -0.81699955 19.333334
10.826064 -2.5804412 -1.1866181 7.1999998
11.124615 -1.0446821 -1.1932316 17
11.020918 -0.53375173 -1.193616 12.666667
10.974928 -0.19243893 -1.0549842 11.248275
10.911001 -9.0118275 -0.63959408 20.5
10.955261 -8.7744398 -0.45861894 21.5
10.953259 -1.7295063 -0.63602686 6.5444446
11.064404 -1.4870771 -0.64804929 5.6484227
10.999155 -0.20161974 -0.63909465 16.395061
10.942595 -8.9096327 -0.13088712 23.5
11.010063 -0.21439983 -0.2509146 21.624664
10.937438 -9.0145531 0.25248492 25.75
11.010887 -8.7121429 0.23384574 25.7985
11.025179 -0.22925498 0.16961007 25.84173
10.801625 -2.8536284 0.77031118 29.5
11.02717 -0.23332095 0.54848725 27.409393
10.850204 -9.2172651 1.013387 30.048
10.859232 -8.1256952 0.99853271 31
10.957066 -2.866605 0.922732 30.068951
11.055004 -2.6499805 1.1677288 30.252186
11.035066 -2.1816146 1.1797401 29.5
11.04458 -1.7248 1.179931 28
11.175939 -1.2878907 1.1873217 28
10.943274 -0.21044894 0.99508923 28.678764
11.110998 -2.603152 1.2045815 29.333334
11.148362 -2.0791669 1.2057439 30
11.024821 -0.36987385 1.2239195 26
11.486969 -0.28205025 -1.7171928 16.25
11.375875 -4.869266 -1.2284844 9.1923075
11.429855 -4.251112 -1.3082089 5.5500002
11.412158 -3.8143201 -1.3028455 2.2589285
11.425904 -3.390517 -1.281599 3.4444444
11.424797 -2.9392953 -1.2368869 8.5277777
11.381757 -2.6035862 -1.2644144 8.9506178
11.436378 -2.2294199 -1.2566724 6.9305553
11.40647 -1.849807 -1.245837 8.75
11.41466 -1.3605819 -1.2398134 10.1625
11.407482 -1.0342212 -1.2266834 8.8629627
11.398971 -0.61945683 -1.2145346 10.483334
11.406372 -0.29843971 -1.3258195 14.785714
11.295568 -4.8682299 -0.99612707 12.285715
11.579627 -2.9796543 -1.0190048 9.8844223
11.394016 -0.25260544 -1.0656976 9.8588734
11.357088 -4.901443 -0.5909301 17.583334
11.587887 -2.9958673 -0.61473405 15.061112
11.388053 -0.26270792 -0.64482576 16.499371
11.338396 -4.9100332 -0.20967819 22.611301
11.587555 -2.9855506 -0.22630395 22.089674
11.371378 -0.2715874 -0.23880559 21.748697
11.350639 -4.9199629 0.23871391 28.440475
11.592731 -3.0231884 0.16803338 27.163635
11.388138 -0.28017184 0.15294087 26.354982
11.411494 1.195896 0.34552699 27.1625
11.290606 -4.9379754 0.41678903 31
11.589849 -3.0837412 0.55309147 31
11.442075 -0.40096417 0.5507651 24
11.405672 -0.28412145 0.56927758 28.825525
11.47695 1.5912671 0.43648455 28.1565
11.496584 1.7064135 0.44707793 28.156
11.586307 2.2265368 0.62291253 29.153999
11.424238 -2.9004097 1.0108509 29.356359
11.333358 -2.5990074 1.1546332 29
11.272951 -2.1419346 1.1510098 28
11.268061 -1.8427422 1.1745468 29.5
11.337706 -1.4282324 1.1834772 29.5
11.357384 -0.89273322 1.1877296 28
11.491995 -0.43602753 1.0188298 25.5
11.371458 -0.27200049 0.97118807 29.352417
11.335256 -2.1116769 1.2075341 29
11.343818 -1.7115211 1.2103833 29.5
